-8,-8,-8,-8,-8,-8,-8,-8,-8,-8,-8,-8,-8,-8,-8,-8,-8,-8,-8,-8,-8,-8,-8,-8,-8,-8,-8,-8,-8,-8,-8,-8,-8,-8,-8,-8,-8,-8,-8,-8,-8,-8,-8,-8,-8,-8,-8,-8,-8,-8,-8,-8,-8,-8,-8,-8,-8,-8,-8,-8,-8,-8,-8,-8,-8,-8,-8,-8,-8,-8,-8,-8,-8,-8,-8,-8,-8,-8,-8,-8,-8,-8,-8,-8,-8,-8,-8,-8,-8,-8,-8,-8,-8,-8,-8,-8,-8,-8,-8,-8,-8,-8,-8,-8,-8,-8,-8,-8,-8,-8,-8,-8,-8,-8,-8,-8,-8,-8,-8,-8,-8,-8,-8,-8,-8,-8,-8,-8,-8,-8,-8,-8,-8,-8,-8,-8,-8,-8,-8,-8,-8,-8,-8,-8,-8,-8,-8,-8,-8,-8,-8,-8,10592,10592,10592,10592,-8,10512,10512,10512,10512,10512,10512,10512,10512,10512,10512,10512,10512,10512,10552,10552,10552,10552,10552,10552,10552,10552,10552,10512,10512,10512,10512,10512,10512,10472,10472,10472,10472,10472,10472,10472,10472,10472,10472,10512,10512,10512,10512,-8,-8,-8,-8,-8,-8,-8,-8,12976,12976,12976,12976,12976,12976,12976,12976,12976,12920,12920,12920,12920,12920,12856,12856,12856,12856,12856,12856,12856,12856,12856,12920,12856,12856,12856,12800,12800,12800,12800,12736,12736,12680,12680,12680,12624,12624,12624,12624,12680,12624,12624,12624,12624,12624,12624,12624,12624,12624,12624,12624,12624,12624,12624,12568,12568,12504,12568,12568,12568,12568,12504,12504,12504,12504,12504,12504,12504,12504,12504,12504,12504,12392,12336,12336,12336,12336,12336,12336,12336,12336,12288,12288,12288,12288,12288,12232,12232,12232,12232,12232,12176,12232,12232,12176,12176,12176,12176,12176,12176,12176,12120,12120,12120,12120,12120,12120,12120,12120,12120,12120,12120,12072,12072,12016,12016,12016,12016,12016,12016,12016,12016,12016,12016,12016,11968,12016,12016,11968,11968,11968,11968,11968,11968,11912,11912,11912,11912,11912,11912,11864,11864,11864,11864,11816,11816,11816,11760,11816,11816,11760,11760,11760,11816,11816,11816,11760,11760,11816,11816,11816,11816,11760,11864,11912,12016,12120,12120,12120,12176,12176,-8,-8,-8,-8,-8,-8,-8,-8,-8,-8,-8,-8,-8,-8,-8,-8,-8,-8,-8,-8,-8,-8,-8,22480,22480,22304,22304,22120,21944,22120,22120,22120,22120,22120,22304,22304,22480,22480,22304,22480,22480,22480,22480,22480,22480,22480,22480,22480,22480,22480,22480,22480,22480,22480,22480,22480,22672,22672,22672,-8,-8,-8,22856,22856,22672,22856,22856,22672,22672,22480,22480,22480,22672,-8,-8,-8,22480,22480,22672,22672,22672,22672,22480,22480,22480,22304,22304,22304,22304,22480,22480,22480,22304,22480,22480,22480,22304,22304,22304,-8,-8,-8,-8,-8,-8,22120,21944,22120,22120,22304,22120,22304,22304,22304,22480,22480,22480,22480,22480,22480,22480,22480,22480,22304,22304,22304,22304,22480,22480,22480,22480,22480,22672,22480,22480,22480,22480,22304,22304,22304,22304,22304,-8,-8,-8,-8,-8,-8,-8,-8,-8,22304,22304,22120,22304,22304,22304,22120,22304,22480,22480,22856,22672,22856,22856,22672,22672,22672,22672,22480,22480,22672,-8,-8,-8,-8,-8,-8,-8,-8,22304,22120,22304,22304,22304,22304,22480,22480,22672,22672,22672,-8,-8,-8,-8,-8,-8,-8,-8,-8,-8,-8,-8,22120,21944,-8,-8,-8,-8,-8,-8,-8,-8,-8,-8,-8,-8,-8,-8,-8,-8,-8,-8,-8,-8,-8,-8,-8,-8,-8,-8,-8,-8,-8,-8,-8,-8,-8
-8,-8,-8,-8,-8,-8,-8,-8,-8,-8,-8,-8,-8,-8,-8,-8,-8,-8,-8,-8,-8,-8,-8,-8,-8,-8,-8,-8,-8,-8,-8,-8,-8,-8,-8,-8,-8,-8,-8,-8,-8,-8,-8,-8,-8,-8,-8,-8,-8,-8,-8,-8,-8,-8,-8,-8,-8,-8,-8,-8,-8,-8,-8,-8,-8,-8,-8,-8,-8,-8,-8,-8,-8,-8,-8,-8,-8,-8,-8,-8,-8,-8,-8,-8,-8,-8,-8,-8,-8,-8,-8,-8,-8,-8,-8,-8,-8,-8,-8,-8,-8,-8,-8,-8,-8,-8,-8,-8,-8,-8,-8,-8,-8,-8,-8,-8,-8,-8,-8,-8,-8,-8,-8,-8,-8,-8,-8,-8,-8,-8,-8,-8,-8,-8,-8,-8,-8,-8,-8,-8,-8,-8,-8,-8,-8,-8,-8,-8,-8,-8,-8,-8,-8,-8,-8,-8,-8,-8,-8,10512,10512,10472,10472,10472,10512,10512,10512,10512,10512,10512,10552,10552,10552,10552,10552,10552,10552,10552,10512,10512,10512,10512,10512,10512,10472,10472,10472,10432,10432,10472,10472,10472,10472,10472,10472,10512,10512,10512,10512,-8,-8,-8,-8,-8,-8,-8,-8,13040,13040,12976,12976,12976,12976,12976,12976,12920,12920,12920,12920,12920,12920,12856,12856,12856,12856,12856,12920,12856,12856,12920,12920,12920,12920,12856,12856,12856,12800,12800,12800,12736,12736,12680,12680,12624,12624,12624,12624,12680,12624,12624,12624,12624,12624,12624,12624,12624,12624,12624,12624,12568,12624,12568,12568,12504,12504,12504,12568,12504,12504,12504,12504,12448,12504,12504,12504,12504,12504,12504,12448,12448,12448,12392,12392,12336,12336,12336,12336,12336,12336,12336,12336,12336,12288,12288,12232,12232,12232,12232,12232,12176,12232,12176,12176,12176,12176,12176,12176,12176,12120,12120,12120,12120,12120,12120,12176,12120,12120,12120,12120,12120,12120,12072,12016,12072,12016,12016,11968,11968,12016,11968,12016,11968,12016,11968,11968,11968,11968,11968,11968,11968,11968,11968,11912,11912,11912,11912,11912,11912,11864,11864,11864,11864,11816,11816,11816,11816,11816,11816,11816,11816,11760,11816,11816,11816,11760,11760,11760,11760,11816,11816,11816,11864,11912,12016,12072,12120,12120,12120,12176,-8,-8,-8,-8,-8,-8,-8,-8,-8,-8,-8,-8,-8,-8,-8,-8,-8,-8,-8,-8,-8,-8,-8,22304,22120,22120,22120,21944,21944,21944,22120,22120,22120,22120,22120,22304,22304,22304,22304,22480,22304,22480,22480,22304,22304,22304,22304,22304,22304,22304,22304,22304,22304,22304,22480,22480,22480,22480,-8,-8,-8,-8,-8,-8,-8,-8,-8,22480,22672,22480,22304,22480,22480,22304,-8,-8,22304,22304,22304,22480,22480,22480,22480,22304,22304,22120,22120,22120,22304,22304,22480,22304,22304,22304,22304,22304,22304,22304,22304,-8,-8,-8,-8,-8,-8,22120,21944,21944,22120,22304,22120,22304,22304,22304,22480,22480,22480,22480,22304,22304,22480,22480,22480,22304,22304,22304,22304,22480,22304,22304,22304,22480,22480,22480,22304,22304,22304,22120,22304,22304,22304,22304,-8,-8,-8,-8,-8,22120,-8,-8,-8,-8,-8,-8,22304,22120,22120,22120,22120,22304,22304,22480,22304,22120,22304,22480,22120,22304,22480,22480,22672,-8,-8,-8,-8,-8,-8,-8,-8,-8,-8,-8,-8,22120,22120,22120,22304,22304,22480,22480,22304,-8,-8,-8,-8,-8,-8,-8,-8,-8,-8,22120,22120,22120,22120,21944,21944,22120,22120,22304,-8,-8,-8,-8,-8,-8,-8,-8,-8,-8,-8,-8,-8,-8,-8,-8,-8,-8,-8,-8,-8,-8,-8,-8,-8,-8,-8,-8
-8,-8,-8,-8,-8,-8,-8,-8,-8,-8,-8,-8,-8,-8,-8,-8,-8,-8,-8,-8,-8,-8,-8,-8,-8,-8,-8,-8,-8,-8,-8,-8,-8,-8,-8,-8,-8,-8,-8,-8,-8,-8,-8,-8,-8,-8,-8,-8,-8,-8,-8,-8,-8,-8,-8,-8,-8,-8,-8,-8,-8,-8,-8,-8,-8,-8,-8,-8,-8,-8,-8,-8,-8,-8,-8,-8,-8,-8,-8,-8,-8,-8,-8,-8,-8,-8,-8,-8,-8,-8,-8,-8,-8,-8,-8,-8,-8,-8,-8,-8,-8,-8,-8,-8,-8,-8,-8,-8,-8,-8,-8,-8,-8,-8,-8,-8,-8,-8,-8,-8,-8,-8,-8,-8,-8,-8,-8,-8,-8,-8,-8,-8,-8,-8,-8,-8,-8,-8,-8,-8,-8,-8,-8,-8,-8,-8,-8,-8,-8,-8,-8,-8,-8,-8,-8,-8,-8,-8,-8,-8,-8,-8,10472,10472,10512,10512,10512,10512,10512,10512,10512,10552,10552,10552,10552,10552,10552,10552,10512,10512,10512,10512,10512,10512,10472,10472,10472,10472,10472,10472,10432,10432,10472,10472,10472,10512,10512,10512,10512,-8,-8,-8,-8,-8,-8,-8,-8,12976,13040,12976,13040,12976,12976,12976,12976,12976,12920,12920,12920,12920,12920,12856,12856,12856,12920,12920,12920,12920,12856,12920,12976,12976,12856,12856,12856,12856,12856,12856,12800,12736,12680,12680,12680,12624,12624,12624,12624,12624,12624,12624,12624,12624,12624,12624,12624,12624,12624,12624,12568,12568,12624,12568,12568,12568,12504,12504,12568,12568,12568,12568,12504,12504,12504,12568,12568,12568,12504,12504,12504,12448,12448,12392,12392,12336,12336,12392,12336,12336,12336,12336,12336,12336,12288,12288,12232,12232,12232,12232,12232,12176,12176,12176,12176,12176,12176,12120,12176,12176,12120,12120,12120,12120,12120,12176,12176,12176,12176,12176,12176,12176,12120,12072,12016,12072,12072,12016,11968,11968,11968,11968,12016,11968,11968,11968,11968,11968,11968,11968,11968,11968,11968,11968,11912,11912,11912,11912,11912,11912,11864,11864,11864,11864,11816,11816,11816,11816,11816,11816,11816,11816,11760,11816,11816,11816,11760,11760,11760,11760,11816,11816,11816,11864,11912,11968,12016,12072,12120,12120,-8,-8,-8,-8,-8,-8,-8,-8,-8,-8,-8,-8,-8,-8,-8,-8,-8,-8,-8,-8,-8,-8,-8,-8,-8,22120,22120,21944,21944,21944,21944,21944,21944,21944,21944,22120,22120,22304,22304,22304,22304,22304,22304,22304,22304,22120,22304,22304,22120,22304,22304,22304,22304,22304,22304,22304,22480,22672,-8,-8,-8,-8,-8,-8,-8,-8,-8,-8,-8,22480,22304,22304,22480,22480,22120,22120,22120,22120,22120,22120,22120,22304,22304,22304,22120,-8,-8,-8,-8,-8,-8,-8,22304,22120,22304,22120,21944,22304,22304,-8,-8,-8,-8,-8,-8,-8,21944,21776,21944,21944,21944,21944,21944,22304,22120,22304,22304,22304,22304,22304,22304,22480,22304,22304,22304,22304,22120,22304,22304,22304,22304,22304,22304,22480,22304,22304,22304,22304,22120,22120,22304,22304,22304,-8,-8,-8,-8,-8,22304,-8,-8,-8,-8,-8,-8,22304,22120,22120,22120,22120,22304,22304,22304,22304,22304,22304,22304,-8,-8,-8,-8,-8,-8,-8,-8,-8,-8,-8,-8,-8,-8,-8,-8,-8,21944,21944,21944,22120,22120,22120,22120,22120,-8,-8,-8,-8,-8,-8,-8,-8,-8,-8,22120,22120,22120,22120,21944,21944,22120,22120,-8,-8,-8,-8,-8,-8,-8,-8,-8,-8,-8,-8,-8,-8,-8,-8,-8,-8,-8,-8,-8,-8,-8,-8,-8,-8,-8,-8,-8
-8,-8,-8,-8,-8,-8,-8,-8,-8,-8,-8,-8,-8,-8,-8,-8,-8,-8,-8,-8,-8,-8,-8,-8,-8,-8,-8,-8,-8,-8,-8,-8,-8,-8,-8,-8,-8,-8,-8,-8,-8,-8,-8,-8,-8,-8,-8,-8,-8,-8,-8,-8,-8,-8,-8,-8,-8,-8,-8,-8,-8,-8,-8,-8,-8,-8,-8,-8,-8,-8,-8,-8,-8,-8,-8,-8,-8,-8,-8,-8,-8,-8,-8,-8,-8,-8,-8,-8,-8,-8,-8,-8,-8,-8,-8,-8,-8,-8,-8,-8,-8,-8,-8,-8,-8,-8,-8,-8,-8,-8,-8,-8,-8,-8,-8,-8,-8,-8,-8,-8,-8,-8,-8,-8,-8,-8,-8,-8,-8,-8,-8,-8,-8,-8,-8,-8,-8,-8,-8,-8,-8,-8,-8,-8,-8,-8,-8,-8,-8,-8,-8,-8,-8,-8,-8,-8,-8,-8,-8,-8,-8,-8,-8,-8,10472,10512,10512,10512,10472,10512,10512,10512,10552,10512,10552,10552,10552,10552,10512,10512,10512,10512,10512,10512,10472,10472,10472,10472,10472,10472,10432,10432,10432,10432,10472,10512,10512,10472,-8,-8,-8,-8,-8,-8,-8,-8,13040,13040,13040,13040,13040,13040,13040,13040,12976,12976,12920,12920,12920,12920,12920,12920,12920,12920,12920,12920,12920,12920,12856,12920,12976,12976,12976,12856,12856,12856,12856,12800,12800,12736,12680,12680,12680,12624,12624,12624,12624,12624,12624,12624,12624,12624,12624,12624,12624,12624,12624,12624,12568,12568,12624,12568,12624,12568,12504,12504,12504,12504,12504,12448,12448,12448,12448,12504,12504,12504,12448,12448,12448,12448,12448,12392,12392,12392,12392,12392,12392,12392,12336,12336,12336,12336,12288,12288,12288,12288,12288,12288,12232,12176,12232,12232,12176,12176,12176,12176,12176,12176,12176,12176,12176,12176,12176,12176,12176,12176,12176,12176,12176,12176,12176,12072,12072,12072,12072,12072,12016,12016,12016,12016,12016,11968,12016,11968,11968,11968,11968,11968,11968,11968,11968,11968,11912,11912,11912,11912,11912,11912,11864,11864,11864,11864,11816,11816,11816,11816,11816,11816,11816,11816,11760,11760,11816,11760,11760,11760,11760,11760,11816,11816,11816,11864,11912,12016,12016,12072,12120,-8,-8,-8,-8,-8,-8,-8,-8,-8,-8,-8,-8,-8,-8,-8,-8,-8,-8,-8,-8,-8,-8,-8,-8,-8,21944,21944,21944,21944,21944,21776,21776,21944,21944,21944,21944,21944,21944,22120,22120,22120,22304,22120,22120,22120,22120,22120,22304,22304,22120,22304,22304,22304,22120,22120,22120,22304,22304,22304,-8,-8,-8,-8,-8,-8,-8,-8,-8,-8,-8,-8,22120,22120,22304,22304,22304,22304,-8,21944,21944,21944,21944,21944,22304,22120,22120,-8,-8,-8,-8,-8,-8,-8,-8,22304,22304,22304,21944,21944,21944,-8,-8,-8,-8,-8,-8,-8,21776,21776,21776,21944,21944,21944,21944,22120,22120,22120,22120,22304,22304,22120,22120,22304,22120,22120,22120,22120,22120,22120,22304,22304,22304,22304,22304,22480,22304,22304,22120,22120,22120,22120,22120,22120,22304,-8,-8,-8,-8,-8,22120,-8,-8,-8,-8,-8,-8,22304,22120,21944,21944,22120,-8,-8,22120,21944,-8,21944,21944,21944,-8,-8,-8,-8,-8,-8,-8,-8,-8,-8,-8,-8,-8,-8,-8,-8,21944,21944,21944,22120,22120,22120,21944,21776,-8,-8,-8,-8,-8,-8,-8,-8,-8,-8,22304,22120,22120,22120,22120,21944,22120,22120,-8,-8,-8,-8,-8,-8,-8,-8,-8,-8,-8,-8,-8,-8,-8,-8,-8,-8,-8,-8,-8,-8,-8,-8,-8,-8,-8,-8,-8
-8,-8,-8,-8,-8,-8,-8,-8,-8,-8,-8,-8,-8,-8,-8,-8,-8,-8,-8,-8,-8,-8,-8,-8,-8,-8,-8,-8,-8,-8,-8,-8,-8,-8,-8,-8,-8,-8,-8,-8,-8,-8,-8,-8,-8,-8,-8,-8,-8,-8,-8,-8,-8,-8,-8,-8,-8,-8,-8,-8,-8,-8,-8,-8,-8,-8,-8,-8,-8,-8,-8,-8,-8,-8,-8,-8,-8,-8,-8,-8,-8,-8,-8,-8,-8,-8,-8,-8,-8,-8,-8,-8,-8,-8,-8,-8,-8,-8,-8,-8,-8,-8,-8,-8,-8,-8,-8,-8,-8,-8,-8,-8,-8,-8,-8,-8,-8,-8,-8,-8,-8,-8,-8,-8,-8,-8,-8,-8,-8,-8,-8,-8,-8,-8,-8,-8,-8,-8,-8,-8,-8,-8,-8,-8,-8,-8,-8,-8,-8,-8,-8,-8,-8,-8,-8,-8,-8,-8,-8,-8,-8,-8,-8,-8,-8,10512,10472,10472,10472,10512,10512,10512,10512,10512,10552,10552,10512,10552,10512,10512,10512,10512,10512,10472,10472,10472,10472,10472,10472,10472,10472,10432,10432,10432,10472,10472,10472,10472,-8,-8,-8,-8,-8,-8,-8,-8,13040,13040,13040,13040,13040,13040,13040,13040,12976,13040,12920,12920,12920,12920,12920,12920,12920,12920,12920,12920,12920,12920,12856,12920,12920,12920,12920,12856,12856,12856,12800,12800,12800,12736,12680,12680,12680,12680,12624,12624,12624,12624,12624,12624,12624,12624,12624,12624,12624,12624,12624,12624,12624,12568,12624,12624,12624,12568,12504,12504,12504,12504,12504,12448,12448,12448,12448,12448,12504,12504,12448,12448,12448,12448,12448,12392,12392,12392,12392,12392,12392,12392,12336,12336,12336,12288,12288,12288,12288,12288,12288,12288,12288,12232,12232,12232,12176,12176,12176,12176,12176,12176,12176,12176,12120,12176,12176,12176,12176,12176,12176,12176,12120,12176,12176,12016,12016,12072,12016,12016,12016,12016,12016,12016,11968,11968,11968,11968,11968,11968,11968,11968,11968,11968,11968,11912,11912,11912,11912,11912,11912,11864,11864,11864,11864,11864,11816,11816,11816,11816,11816,11816,11816,11760,11760,11760,11816,11760,11760,11760,11760,11760,11816,11816,11816,11864,11912,11968,-8,-8,-8,-8,-8,-8,-8,-8,-8,-8,-8,-8,-8,-8,-8,-8,-8,-8,-8,-8,-8,-8,-8,-8,-8,-8,-8,-8,21944,21944,21776,21776,21944,21776,21776,21776,21776,21776,21776,21776,21944,21944,21944,21944,21944,21944,21944,21944,21944,21944,22120,22120,21944,22120,22304,22120,22120,21944,22120,22120,22120,22120,-8,-8,-8,-8,-8,-8,-8,-8,-8,-8,-8,21608,22120,22120,22120,22120,22120,21776,21776,21944,21944,21944,21944,21944,22304,22120,22120,-8,-8,-8,-8,-8,-8,-8,-8,21776,22120,21944,21776,21776,-8,-8,-8,-8,-8,-8,-8,-8,-8,21776,21776,21776,21776,21776,21944,21944,21944,21944,21944,21944,21944,21944,21944,21944,21944,21944,21944,22120,21944,22120,22120,22120,22120,22120,22304,22304,22304,22120,22120,22304,22120,22120,22120,22120,22120,-8,-8,-8,-8,-8,21944,-8,-8,21608,21608,-8,-8,22120,22120,22120,21776,21944,-8,-8,-8,-8,-8,21944,21944,-8,-8,-8,-8,-8,-8,-8,-8,-8,-8,-8,-8,-8,-8,-8,-8,-8,21608,21776,21776,21944,21944,21944,21776,21776,-8,-8,-8,-8,-8,-8,-8,-8,-8,-8,-8,-8,22120,22120,22120,21944,21944,-8,-8,-8,-8,-8,-8,-8,-8,-8,-8,-8,-8,-8,-8,-8,-8,20336,-8,-8,21608,-8,-8,-8,-8,-8,-8,-8,-8,-8,-8
-8,-8,-8,-8,-8,-8,-8,-8,-8,-8,-8,-8,-8,-8,-8,-8,-8,-8,-8,-8,-8,-8,-8,-8,-8,-8,-8,-8,-8,-8,-8,-8,-8,-8,-8,-8,-8,-8,-8,-8,-8,-8,-8,-8,-8,-8,-8,-8,-8,-8,-8,-8,-8,-8,-8,-8,-8,-8,-8,-8,-8,-8,-8,-8,-8,-8,-8,-8,-8,-8,-8,-8,-8,-8,-8,-8,-8,-8,-8,-8,-8,-8,-8,-8,-8,-8,-8,-8,-8,-8,-8,-8,-8,-8,-8,-8,-8,-8,-8,-8,-8,-8,-8,-8,-8,-8,-8,-8,-8,-8,-8,-8,-8,-8,-8,-8,-8,-8,-8,-8,-8,-8,-8,-8,-8,-8,-8,-8,-8,-8,-8,-8,-8,-8,-8,-8,-8,-8,-8,-8,-8,-8,-8,-8,-8,-8,-8,-8,-8,-8,-8,-8,-8,-8,-8,-8,-8,-8,-8,-8,-8,-8,-8,-8,-8,-8,-8,-8,10472,10512,10512,10512,10512,10512,10552,10552,10512,10552,10512,10512,10512,10512,10512,10472,10472,10472,10472,10472,10472,10472,10472,10432,10432,10432,10472,10472,10472,10472,-8,-8,-8,-8,-8,-8,-8,-8,13040,13040,13040,13040,13040,13104,13104,13040,12856,12856,12856,12920,12920,12920,12920,12920,12920,12920,12920,12920,12920,12920,12856,12920,12920,12920,12920,12856,12856,12856,12856,12856,12856,12800,12736,12680,12680,12680,12680,12624,12624,12624,12624,12624,12624,12624,12624,12624,12624,12624,12624,12624,12568,12568,12624,12568,12568,12504,12504,12504,12504,12504,12448,12448,12448,12504,12448,12448,12448,12448,12448,12448,12448,12448,12448,12448,12392,12392,12392,12392,12392,12392,12392,12336,12336,12336,12288,12288,12232,12288,12288,12288,12288,12232,12232,12232,12232,12176,12176,12176,12176,12176,12176,12176,12120,12176,12176,12176,12120,12176,12176,12120,12120,12120,12120,12072,12072,12016,12016,12016,12016,12016,12016,12016,11968,11968,12016,11968,11968,11968,12016,11968,11968,11968,11968,11968,11912,11912,11912,11912,11864,11864,11864,11864,11864,11864,11816,11816,11816,11816,11816,11816,11816,11760,11816,11760,11760,11760,11760,11760,11760,11760,11816,11816,11816,11864,11912,11912,-8,-8,-8,-8,-8,-8,-8,-8,-8,-8,-8,-8,-8,-8,-8,-8,-8,-8,-8,-8,-8,-8,-8,-8,-8,-8,21944,21944,21776,21776,21776,21776,21776,21776,21608,21608,21608,21608,21608,21776,21776,21776,21776,21776,21776,21776,21776,21776,21776,21776,21776,21944,21776,21944,22120,21944,21776,21776,21776,21776,21944,21608,21608,21608,-8,-8,-8,-8,-8,-8,-8,-8,-8,-8,21608,21608,21776,21944,21776,21776,21776,21944,21944,21944,21944,21944,22120,21944,21944,21776,-8,-8,-8,-8,-8,-8,-8,-8,-8,-8,21440,-8,-8,-8,-8,-8,-8,-8,-8,21608,21776,21608,21776,21776,21776,21776,21776,21944,21944,21944,21944,21944,21776,21944,21776,21944,21776,21944,21944,21944,21944,21944,22120,21944,22120,21944,22120,21944,21944,21944,21944,22120,21944,22120,22120,22120,22120,-8,-8,-8,21440,21440,21608,-8,-8,-8,21608,21608,22120,22120,22120,22120,21608,-8,21608,-8,-8,21608,-8,21776,21776,21776,-8,-8,-8,-8,-8,-8,-8,-8,-8,-8,-8,-8,-8,-8,-8,-8,-8,-8,21608,21776,21776,21776,21776,21608,21776,-8,-8,-8,-8,-8,-8,-8,-8,-8,-8,-8,21944,21944,21944,21776,-8,-8,-8,-8,-8,-8,-8,-8,-8,-8,-8,-8,-8,-8,-8,-8,20184,20336,-8,-8,21440,-8,-8,-8,-8,-8,-8,-8,-8,-8,-8
-8,-8,-8,-8,-8,-8,-8,-8,-8,-8,-8,-8,-8,-8,-8,-8,-8,-8,-8,-8,-8,-8,-8,-8,-8,-8,-8,-8,-8,-8,-8,-8,-8,-8,-8,-8,-8,-8,-8,-8,-8,-8,-8,-8,-8,-8,-8,-8,-8,-8,-8,-8,-8,-8,-8,-8,-8,-8,-8,-8,-8,-8,-8,-8,-8,-8,-8,-8,-8,-8,-8,-8,-8,-8,-8,-8,-8,-8,-8,-8,-8,-8,-8,-8,-8,-8,-8,-8,-8,-8,-8,-8,-8,-8,-8,-8,-8,-8,-8,-8,-8,-8,-8,-8,-8,-8,-8,-8,-8,-8,-8,-8,-8,-8,-8,-8,-8,-8,-8,-8,-8,-8,-8,-8,-8,-8,-8,-8,-8,-8,-8,-8,-8,-8,-8,-8,-8,-8,-8,-8,-8,-8,-8,-8,-8,-8,-8,-8,-8,-8,-8,-8,-8,-8,-8,-8,-8,-8,-8,-8,-8,-8,-8,-8,-8,-8,-8,-8,-8,-8,10472,10472,10512,10512,10512,10552,10512,10552,10552,10512,10512,10512,10512,10512,10512,10472,10472,10472,10472,10472,10432,10432,10432,10432,10472,10472,10432,10432,-8,-8,-8,-8,-8,-8,-8,-8,13040,12976,13040,13040,13040,13104,13104,12920,12856,12856,12856,12920,12920,12920,12920,12920,12920,12920,12920,12920,12920,12920,12856,12920,12920,12920,12976,12920,12856,12856,12800,12856,12800,12736,12680,12680,12680,12680,12680,12624,12624,12624,12624,12624,12624,12680,12624,12624,12624,12624,12624,12624,12568,12568,12624,12568,12624,12568,12568,12504,12504,12504,12504,12448,12448,12448,12448,12448,12448,12448,12448,12448,12448,12448,12448,12448,12448,12392,12448,12392,12392,12392,12392,12336,12336,12336,12288,12288,12288,12288,12288,12288,12288,12232,12232,12232,12232,12176,12176,12176,12176,12176,12176,12176,12176,12176,12176,12176,12176,12176,12176,12120,12120,12120,12120,12072,12072,12072,12072,12072,12072,12072,12016,12016,11968,11968,11968,11968,11968,11968,11968,11968,11968,11968,11968,11912,11912,11912,11912,11912,11864,11816,11816,11864,11864,11864,11816,11816,11816,11816,11816,11816,11816,11760,11760,11760,11760,11760,11760,11760,11760,11760,11816,11864,11864,11864,11912,11912,11968,-8,-8,-8,-8,-8,-8,-8,-8,-8,-8,-8,-8,-8,-8,-8,-8,-8,-8,-8,-8,-8,-8,-8,-8,-8,-8,21440,21776,21776,21776,21776,21608,21608,21608,21608,21440,21440,21440,21608,21608,21608,21776,21776,21776,21776,21776,21776,21776,21776,21776,21776,21776,21776,21776,21776,21608,21608,21608,21608,21608,21608,21608,21608,-8,-8,-8,-8,-8,-8,-8,21272,21272,21440,21440,21608,21608,21608,21608,21608,21776,21776,21944,21776,21776,21776,22120,21944,21776,21776,-8,-8,-8,-8,-8,-8,-8,-8,-8,-8,-8,-8,-8,-8,-8,-8,-8,-8,-8,21440,21608,21440,21608,21608,21776,21776,21776,21944,21776,21944,21776,21776,21776,21776,21776,21776,21776,21776,21776,21776,21776,21944,21944,21944,21944,21944,21944,21776,21776,21776,21776,21944,21944,21944,21944,21944,-8,-8,-8,21440,21440,21440,21608,21608,21440,21608,21608,21608,21608,21608,21944,21944,21608,21608,21608,-8,-8,21608,21608,21608,21608,21608,21608,-8,-8,-8,-8,-8,-8,-8,-8,-8,-8,-8,-8,-8,-8,-8,-8,-8,21440,21608,21608,21608,21608,21440,21608,-8,-8,-8,-8,-8,-8,-8,-8,-8,-8,-8,21776,21944,21776,21776,21776,-8,-8,-8,-8,-8,-8,-8,-8,-8,-8,-8,-8,-8,-8,-8,20184,20480,20952,21440,21440,-8,-8,-8,-8,-8,-8,-8,-8,-8,-8
-8,-8,-8,-8,-8,-8,-8,-8,-8,-8,-8,-8,-8,-8,-8,-8,-8,-8,-8,-8,-8,-8,-8,-8,-8,-8,-8,-8,-8,-8,-8,-8,-8,-8,-8,-8,-8,-8,-8,-8,-8,-8,-8,-8,-8,-8,-8,-8,-8,-8,-8,-8,-8,-8,-8,-8,-8,-8,-8,-8,-8,-8,-8,-8,-8,-8,-8,-8,-8,-8,-8,-8,-8,-8,-8,-8,-8,-8,-8,-8,-8,-8,-8,-8,-8,-8,-8,-8,-8,-8,-8,-8,-8,-8,-8,-8,-8,-8,-8,-8,-8,-8,-8,-8,-8,-8,-8,-8,-8,-8,-8,-8,-8,-8,-8,-8,-8,-8,-8,-8,-8,-8,-8,-8,-8,-8,-8,-8,-8,-8,-8,-8,-8,-8,-8,-8,-8,-8,-8,-8,-8,-8,-8,-8,-8,-8,-8,-8,-8,-8,-8,-8,-8,-8,-8,-8,-8,-8,-8,-8,-8,-8,-8,-8,-8,-8,-8,-8,-8,-8,-8,-8,-8,-8,-8,10512,10512,10552,10512,10512,10512,10512,10512,10512,10472,10472,10432,10432,10432,10432,10432,10432,10432,10432,10472,10472,10472,10472,-8,-8,-8,-8,-8,-8,-8,-8,13040,13040,13040,13040,13104,12920,12920,12920,12920,12920,12856,12920,12920,12920,12920,12920,12920,12920,12920,12920,12920,12920,12856,12856,12920,12920,12920,12920,12856,12856,12856,12856,12680,12680,12680,12680,12624,12680,12624,12624,12624,12624,12624,12624,12680,12680,12624,12624,12624,12624,12624,12624,12624,12568,12624,12624,12624,12624,12568,12568,12568,12568,12504,12504,12504,12504,12504,12504,12448,12448,12448,12448,12448,12448,12448,12392,12392,12392,12392,12392,12392,12392,12392,12336,12336,12336,12288,12288,12288,12288,12288,12288,12288,12232,12232,12232,12232,12176,12176,12176,12176,12176,12176,12176,12176,12176,12176,12176,12176,12176,12176,12120,12120,12120,12120,12120,12072,12072,12072,12072,12072,12072,12016,12016,11968,11968,11968,11968,11968,11968,11968,11968,11968,11968,11968,11968,11912,11912,11912,11912,11864,11816,11816,11864,11864,11864,11816,11816,11816,11816,11864,11816,11816,11816,11816,11760,11760,11760,11760,11760,11760,11760,11816,11816,11864,11864,11912,11912,11968,-8,-8,-8,-8,-8,-8,-8,-8,-8,-8,-8,-8,-8,-8,-8,-8,-8,-8,-8,-8,-8,-8,-8,-8,-8,-8,21440,21608,21608,21608,21776,21608,21608,21440,21608,21440,21440,21440,21608,21608,21608,21608,21608,21776,21608,21608,21608,21776,21776,21776,21776,21608,21608,21608,21608,21608,21608,21608,21608,21440,21440,21440,21440,-8,-8,-8,-8,-8,-8,21272,21272,21272,21272,21440,21440,21440,21440,21440,21440,21608,21776,21776,21776,21776,21776,21944,21776,21776,21440,-8,-8,-8,-8,-8,-8,-8,-8,-8,-8,-8,-8,-8,-8,-8,-8,21440,21272,21440,21440,21440,21440,21608,21608,21608,21608,21608,21776,21608,21776,21608,21608,21608,21608,21608,21608,21608,21608,21776,21776,21776,21776,21944,21776,21944,21776,21776,21776,21776,21776,21776,21776,-8,-8,-8,-8,-8,-8,-8,21272,21272,21272,21112,21112,21440,21440,21608,21608,21608,21608,21608,21608,21608,21608,-8,-8,-8,-8,21440,21440,21440,21440,21440,-8,-8,-8,-8,-8,-8,-8,-8,-8,-8,-8,-8,-8,-8,-8,-8,-8,21272,21440,21272,21272,21440,21440,21440,21440,-8,-8,-8,-8,-8,-8,-8,-8,-8,21776,21944,21944,21944,21944,21776,-8,-8,-8,-8,-8,-8,-8,-8,-8,-8,-8,-8,-8,-8,20480,20640,20640,20792,20952,20952,-8,-8,-8,-8,-8,-8,-8,-8,-8,-8
-8,-8,-8,-8,-8,-8,-8,-8,-8,-8,-8,-8,-8,-8,-8,-8,-8,-8,-8,-8,-8,-8,-8,-8,-8,-8,-8,-8,-8,-8,-8,-8,-8,-8,-8,-8,-8,-8,-8,-8,-8,-8,-8,-8,-8,-8,-8,-8,-8,-8,-8,-8,-8,-8,-8,-8,-8,-8,-8,-8,-8,-8,-8,-8,-8,-8,-8,-8,-8,-8,-8,-8,-8,-8,-8,-8,-8,-8,-8,-8,-8,-8,-8,-8,-8,-8,-8,-8,-8,-8,-8,-8,-8,-8,-8,-8,-8,-8,-8,-8,-8,-8,-8,-8,-8,-8,-8,-8,-8,-8,-8,-8,-8,-8,-8,-8,-8,-8,-8,-8,-8,-8,-8,-8,-8,-8,-8,-8,-8,-8,-8,-8,-8,-8,-8,-8,-8,-8,-8,-8,-8,-8,-8,-8,-8,-8,-8,-8,-8,-8,-8,-8,-8,-8,-8,-8,-8,-8,-8,-8,-8,-8,-8,-8,-8,-8,-8,-8,-8,-8,-8,-8,-8,-8,-8,-8,10512,10552,10552,10552,10512,10512,10512,10472,10472,10472,-8,-8,-8,-8,-8,-8,10512,10512,10552,10512,10512,10432,-8,-8,-8,-8,-8,-8,-8,-8,-8,-8,13040,13040,12976,12920,12920,12920,12920,12920,12920,12920,12920,12920,12920,12920,12920,12920,12920,12920,12856,12856,12800,12856,12856,12856,12856,12856,12800,12800,12800,12856,12856,12624,12624,12624,12624,12680,12624,12624,12624,12624,12624,12624,12680,12624,12624,12624,12624,12624,12624,12624,12568,12568,12624,12624,12624,12624,12568,12568,12568,12568,12568,12504,12504,12504,12504,12448,12448,12448,12448,12448,12448,12448,12448,12392,12392,12392,12448,12392,12392,12392,12392,12392,12336,12336,12288,12336,12288,12288,12288,12288,12288,12232,12232,12232,12232,12176,12176,12176,12176,12176,12176,12176,12176,12176,12176,12176,12176,12176,12176,12120,12120,12120,12120,12072,12072,12072,12072,12072,12120,12072,12016,12016,11968,11968,11968,11968,11968,11968,11968,11968,11968,11968,11968,11968,11968,11912,11912,11912,11864,11864,11864,11864,11864,11864,11816,11816,11864,11864,11864,11816,11816,11816,11816,11760,11760,11760,11760,11760,11760,11760,11760,11816,11864,11864,11912,11968,-8,-8,-8,-8,-8,-8,-8,-8,-8,-8,-8,-8,-8,-8,-8,-8,-8,-8,-8,-8,-8,-8,-8,-8,-8,-8,-8,21272,21440,21440,21608,21608,21608,21608,21440,21440,21440,21272,21440,21440,21608,21608,21608,21608,21608,21608,21608,21608,21608,21608,21608,21608,21608,21608,21608,21440,21440,21440,21440,21440,21272,21272,21440,21440,21440,21272,21272,21272,21440,21440,21272,21272,21272,21272,21272,21272,21272,21272,21272,21272,21272,21608,21608,21608,21608,21776,21776,21776,21608,21440,21440,-8,-8,-8,-8,-8,-8,-8,-8,-8,-8,-8,-8,-8,-8,-8,21272,21272,21272,21272,21440,21272,21440,21440,21608,21608,21608,21608,21608,21608,21440,21608,21608,21608,21608,21440,21440,21608,21608,21776,21776,21776,21776,21776,21776,21776,21776,21776,21776,21776,21776,21776,-8,-8,-8,-8,-8,-8,-8,21112,21112,21112,21112,21112,21112,21272,21440,21440,21440,21608,21440,21440,21440,21440,-8,-8,21272,21272,21272,21440,21440,21440,21272,21272,-8,-8,-8,-8,-8,-8,-8,-8,-8,-8,-8,-8,-8,-8,-8,-8,21272,21272,21272,21272,21272,21272,21440,21440,-8,-8,-8,-8,-8,-8,-8,-8,-8,21944,21944,21944,21944,21944,-8,-8,-8,-8,-8,-8,-8,-8,-8,-8,-8,-8,-8,-8,-8,20640,20792,20792,20952,20952,20952,20336,-8,-8,-8,-8,-8,-8,-8,-8,-8
-8,-8,-8,-8,-8,-8,-8,-8,-8,-8,-8,-8,-8,-8,-8,-8,-8,-8,-8,-8,-8,-8,-8,-8,-8,-8,-8,-8,-8,-8,-8,-8,-8,-8,-8,-8,-8,-8,-8,-8,-8,-8,-8,-8,-8,-8,-8,-8,-8,-8,-8,-8,-8,-8,-8,-8,-8,-8,-8,-8,-8,-8,-8,-8,-8,-8,-8,-8,-8,-8,-8,-8,-8,-8,-8,-8,-8,-8,-8,-8,-8,-8,-8,-8,-8,-8,-8,-8,-8,-8,-8,-8,-8,-8,-8,-8,-8,-8,-8,-8,-8,-8,-8,-8,-8,-8,-8,-8,-8,-8,-8,-8,-8,-8,-8,-8,-8,-8,-8,-8,-8,-8,-8,-8,-8,-8,-8,-8,-8,-8,-8,-8,-8,-8,-8,-8,-8,-8,-8,-8,-8,-8,-8,-8,-8,-8,-8,-8,-8,-8,-8,-8,-8,-8,-8,-8,-8,-8,-8,-8,-8,-8,-8,-8,-8,-8,-8,-8,-8,-8,-8,-8,-8,-8,-8,-8,-8,-8,10592,10552,10552,10512,10552,10632,10632,10632,-8,-8,-8,-8,-8,-8,-8,10552,10472,10472,10512,10432,-8,-8,-8,-8,-8,-8,-8,-8,-8,-8,12976,12976,12920,12920,-8,-8,12920,12920,-8,12920,12920,12920,12920,12920,12920,12920,12920,12856,12856,12856,12800,12800,12800,12856,12856,12856,12856,12856,12800,12856,12856,12624,12624,12624,12624,12624,12624,12624,12680,12680,12680,12680,12680,12680,12680,12624,12624,12624,12624,12624,12568,12568,12568,12624,12624,12568,12568,12568,12568,12568,12568,12504,12504,12504,12504,12448,12448,12448,12448,12448,12448,12448,12448,12392,12448,12448,12448,12392,12392,12392,12392,12392,12336,12336,12336,12336,12336,12336,12288,12336,12336,12232,12232,12232,12176,12176,12176,12176,12176,12176,12176,12176,12176,12176,12176,12176,12176,12120,12120,12120,12072,12120,12120,12072,12072,12072,12072,12072,12120,12072,12016,12016,11968,11968,11968,11968,11968,11968,11968,11968,11968,11968,11968,11968,11968,11912,11912,11912,11864,11816,11864,11864,11864,11864,11816,11816,11864,11864,11864,11816,11816,11816,11816,11760,11760,11760,11760,11760,11760,11760,11760,11816,11864,11864,11912,11968,-8,-8,-8,-8,-8,-8,-8,-8,-8,-8,-8,-8,-8,-8,-8,-8,-8,-8,-8,-8,-8,-8,-8,-8,-8,20952,21112,21272,21272,21440,21608,21608,21440,21440,21440,21440,21272,21272,21440,21440,21608,21608,21608,21608,21608,21608,21440,21440,21608,21608,21608,21440,21440,21440,21440,21272,21272,21440,21272,21272,21272,21272,21272,21440,21112,21112,21272,21440,21440,21440,21440,21272,21272,21272,21440,21272,21272,21272,21272,21272,21272,21608,21608,21608,21608,21776,21776,21608,21608,21608,21608,-8,-8,-8,-8,-8,-8,-8,-8,-8,-8,-8,21272,-8,-8,21272,21272,21272,21272,21272,21272,21272,21440,21440,21440,21440,21440,21440,21440,21440,21272,21272,21440,21440,21440,21440,21440,21440,21608,21608,21608,21608,21776,21776,21776,21608,21776,21608,21608,21608,21608,21776,-8,-8,-8,-8,-8,-8,-8,21112,21112,21112,21112,21112,21112,21272,21440,21440,21608,21608,21608,21440,21608,21440,-8,-8,21440,21272,21272,21272,21440,21440,21272,21272,-8,21112,-8,-8,-8,-8,-8,-8,-8,-8,-8,-8,-8,-8,-8,-8,-8,21272,21112,21112,21112,21272,21272,21272,-8,-8,-8,-8,-8,-8,21608,21776,21776,21776,21776,21776,21776,21776,21608,-8,-8,-8,-8,-8,-8,-8,-8,-8,-8,-8,-8,-8,20640,20640,20640,20792,20952,20952,20640,20640,-8,-8,-8,-8,-8,-8,-8,-8,-8
-8,-8,-8,-8,-8,-8,-8,-8,-8,-8,-8,-8,-8,-8,-8,-8,-8,-8,-8,-8,-8,-8,-8,-8,-8,-8,-8,-8,-8,-8,-8,-8,-8,-8,-8,-8,-8,-8,-8,-8,-8,-8,-8,-8,-8,-8,-8,-8,-8,-8,-8,-8,-8,-8,-8,-8,-8,-8,-8,-8,-8,-8,-8,-8,-8,-8,-8,-8,-8,-8,-8,-8,-8,-8,-8,-8,-8,-8,-8,-8,-8,-8,-8,-8,-8,-8,-8,-8,-8,-8,-8,-8,-8,-8,-8,-8,-8,-8,-8,-8,-8,-8,-8,-8,-8,-8,-8,-8,-8,-8,-8,-8,-8,-8,-8,-8,-8,-8,-8,-8,-8,-8,-8,-8,-8,-8,-8,-8,-8,-8,-8,-8,-8,-8,-8,-8,-8,-8,-8,-8,-8,-8,-8,-8,-8,-8,-8,-8,-8,-8,-8,-8,-8,-8,-8,-8,-8,-8,-8,-8,-8,-8,-8,-8,-8,-8,-8,-8,-8,-8,-8,-8,-8,-8,-8,-8,-8,-8,-8,-8,-8,10632,10632,10632,10672,-8,-8,-8,-8,-8,-8,-8,-8,-8,10512,10472,-8,-8,-8,-8,-8,-8,-8,-8,-8,-8,-8,-8,-8,-8,-8,-8,-8,-8,-8,-8,-8,-8,12856,12920,12920,12920,12920,12920,12856,12856,12856,12856,12800,12800,12800,12800,12856,12856,12856,12800,12800,12856,12856,12624,12624,12624,12624,12624,12624,12624,12680,12680,12680,12680,12680,12680,12680,12680,12680,12624,12624,12624,12568,12568,12568,12624,12624,12624,12568,12568,12568,12568,12568,12504,12504,12504,12504,12448,12448,12448,12448,12448,12448,12448,12448,12448,12448,12448,12448,12392,12392,12392,12392,12392,12336,12336,12336,12336,12336,12336,12336,12336,12336,12288,12232,12232,12232,12176,12176,12176,12176,12176,12176,12176,12176,12120,12176,12120,12120,12120,12120,12120,12072,12072,12072,12016,12016,12016,12016,12072,12072,12072,12016,12072,12016,12016,12016,12016,11968,11968,12016,12016,12016,12016,11968,11968,11968,11968,11912,11912,11864,11816,11864,11864,11816,11864,11816,11816,11864,11864,11864,11816,11816,11816,11816,11816,11760,11760,11816,11760,11760,11760,11760,11816,11864,11864,11912,11968,12016,12072,-8,-8,-8,-8,-8,-8,-8,-8,-8,-8,-8,-8,-8,-8,-8,-8,-8,-8,-8,-8,20480,20792,20952,20952,21112,21112,21272,21272,21440,21608,21440,21440,21440,21440,21272,21272,21272,21440,21440,21440,-8,21608,21608,21440,21440,21440,21440,21440,21440,21440,21440,21272,21272,21272,21272,21272,21272,21112,21112,21112,21112,21112,21112,21112,21112,21272,21272,21440,21272,21272,21112,21112,21272,21272,21272,21272,21112,21272,21440,21440,21608,21608,21440,21776,21776,21608,21440,21440,21112,-8,-8,21440,21272,21272,21272,21272,-8,-8,-8,20952,20952,20952,20952,21112,21112,21112,21272,21272,21272,21272,21440,21272,21272,21272,21272,21272,21272,21272,21112,21112,21272,21272,21272,21272,21272,21272,21440,21440,21440,21440,21608,21608,21440,21440,21440,21440,21608,21440,-8,-8,-8,-8,-8,-8,-8,-8,21112,21112,21112,21112,20952,21112,21112,21112,21272,21272,21440,21440,21440,21440,21440,21440,-8,-8,21608,21440,21440,21440,21440,21440,21272,21272,21112,21272,21272,-8,-8,-8,-8,-8,-8,-8,-8,-8,-8,-8,-8,-8,-8,21112,20952,20952,21112,21112,21112,21112,21112,20952,-8,-8,-8,21440,21608,21608,21608,21608,21608,21608,21608,21608,21440,21440,-8,-8,-8,-8,-8,-8,-8,-8,-8,-8,-8,20640,20640,20640,20640,20952,20952,20952,20480,20480,-8,-8,-8,-8,-8,-8,-8,-8,-8
-8,-8,-8,-8,-8,-8,-8,-8,-8,-8,-8,-8,-8,-8,-8,-8,-8,-8,-8,-8,-8,-8,-8,-8,-8,-8,-8,-8,-8,-8,-8,-8,-8,-8,-8,-8,-8,-8,-8,-8,-8,-8,-8,-8,-8,-8,-8,-8,-8,-8,-8,-8,-8,-8,-8,-8,-8,-8,-8,-8,-8,-8,-8,-8,-8,-8,-8,-8,-8,-8,-8,-8,-8,-8,-8,-8,-8,-8,-8,-8,-8,-8,-8,-8,-8,-8,-8,-8,-8,-8,-8,-8,-8,-8,-8,-8,-8,-8,-8,-8,-8,-8,-8,-8,-8,-8,-8,-8,-8,-8,-8,-8,-8,-8,-8,-8,-8,-8,-8,-8,-8,-8,-8,-8,-8,-8,-8,-8,-8,-8,-8,-8,-8,-8,-8,-8,-8,-8,-8,-8,-8,-8,-8,-8,-8,-8,-8,-8,-8,-8,-8,-8,-8,-8,-8,-8,-8,-8,-8,-8,-8,-8,-8,-8,-8,-8,-8,-8,-8,-8,-8,-8,-8,-8,-8,-8,-8,-8,-8,-8,-8,10672,10632,10672,-8,-8,-8,-8,-8,-8,-8,-8,-8,-8,-8,-8,-8,-8,-8,-8,-8,-8,-8,-8,-8,-8,-8,-8,-8,-8,-8,-8,-8,-8,-8,-8,-8,-8,12856,12856,12920,12920,12920,12856,12856,12856,12856,12800,12800,12800,12800,12800,12800,12856,12800,12800,12800,12856,12856,12680,12680,12680,12624,12680,12680,12680,12680,12680,12680,12680,12680,12736,12680,12680,12680,12680,12624,12624,12568,12568,12568,12624,12624,12624,12624,12624,12568,12568,12568,12568,12504,12504,12504,12448,12448,12448,12448,12448,12448,12448,12448,12448,12448,12448,12448,12392,12392,12392,12392,12392,12392,12336,12336,12336,12336,12336,12336,12288,12288,12232,12232,12232,12232,12232,12176,12176,12176,12120,12120,12120,12120,12120,12120,12120,12120,12120,12120,12120,12072,12072,12072,12072,12072,12016,12072,12072,12120,12072,12072,12072,12016,11968,12016,11968,11968,11968,12016,11968,11968,12016,11968,11968,11968,11968,11912,11912,11864,11816,11816,11864,11816,11864,11816,11816,11864,11864,11864,11816,11816,11816,11816,11816,11816,11760,11760,11760,11760,11760,11760,11816,11864,11912,11912,11968,11968,12016,-8,-8,-8,-8,-8,-8,-8,-8,-8,-8,-8,-8,-8,-8,-8,-8,-8,-8,-8,-8,20480,20792,20792,20952,21112,21112,21112,21272,21272,21440,21440,21440,21272,21272,21272,21272,-8,-8,-8,21272,-8,21272,21272,21272,21272,21272,21272,21272,21272,21272,21272,21112,21112,21112,21112,21272,21272,21112,21112,21272,21272,-8,21112,21112,21112,21272,21272,21272,21112,21112,21112,21112,21112,21112,21112,21272,21272,21272,21272,21440,21608,21608,21440,21440,21608,21440,21272,21112,21112,21112,21272,21272,21112,21272,21272,21272,-8,-8,20952,20952,20952,20952,20792,20952,20952,21112,21112,21112,21272,21272,21440,21272,-8,-8,21112,21112,21112,21112,21112,21112,21112,21112,21112,21112,21112,21112,21112,21272,21112,21272,21272,21272,21112,21112,21272,21112,21440,21272,-8,-8,-8,-8,-8,-8,21112,21112,21112,21112,20952,20952,20952,20952,20952,20952,20952,21272,21272,21440,21440,21440,21608,21440,-8,21608,21608,21440,21440,21440,21272,21440,21272,21272,21112,21272,21272,21440,21272,21112,21272,-8,-8,-8,-8,-8,-8,-8,-8,20640,20952,20952,20792,20792,20792,20952,20952,20952,20952,20952,20952,20952,21112,21272,21440,21440,21440,21608,21440,21440,21608,21440,21440,21440,-8,-8,-8,-8,-8,-8,-8,-8,-8,-8,20792,20792,20640,20640,20792,20952,20952,20952,20792,20640,-8,-8,-8,-8,-8,-8,-8,-8,-8
-8,-8,-8,-8,-8,-8,-8,-8,-8,-8,-8,-8,-8,-8,-8,-8,-8,-8,-8,-8,-8,-8,-8,-8,-8,-8,-8,-8,-8,-8,-8,-8,-8,-8,-8,-8,-8,-8,-8,-8,-8,-8,-8,-8,-8,-8,-8,-8,-8,-8,-8,-8,-8,-8,-8,-8,-8,-8,-8,-8,-8,-8,-8,-8,-8,-8,-8,-8,-8,-8,-8,-8,-8,-8,-8,-8,-8,-8,-8,-8,-8,-8,-8,-8,-8,-8,-8,-8,-8,-8,-8,-8,-8,-8,-8,-8,-8,-8,-8,-8,-8,-8,-8,-8,-8,-8,-8,-8,-8,-8,-8,-8,-8,-8,-8,-8,-8,-8,-8,-8,-8,-8,-8,-8,-8,-8,-8,-8,-8,-8,-8,-8,-8,-8,-8,-8,-8,-8,-8,-8,-8,-8,-8,-8,-8,-8,-8,-8,-8,-8,-8,-8,-8,-8,-8,-8,-8,-8,-8,-8,-8,-8,-8,-8,-8,-8,-8,-8,-8,-8,-8,-8,-8,-8,-8,-8,-8,-8,-8,-8,-8,10672,10632,10672,-8,-8,-8,-8,-8,-8,-8,-8,-8,-8,-8,-8,-8,-8,-8,-8,-8,-8,-8,-8,-8,-8,-8,-8,-8,-8,-8,-8,-8,-8,-8,-8,-8,-8,12856,12856,12856,12856,12920,12856,12856,12800,12800,12800,12736,12736,12736,12856,12856,12856,12856,12800,12800,12800,12800,12680,12680,12680,12680,12680,12680,12680,12680,12680,12680,12736,12736,12736,12680,12680,12680,12680,12624,12624,12568,12568,12568,12624,12568,12568,12568,12568,12568,12568,12568,12568,12568,12504,12504,12448,12448,12448,12448,12448,12448,12448,12448,12448,12448,12448,12448,12392,12392,12392,12392,12392,12392,12336,12392,12392,12336,12336,12336,12288,12288,12232,12232,12176,12176,12176,12176,12176,12176,12176,12120,12120,12120,12120,12120,12120,12120,12120,12120,12120,12072,12072,12072,12072,12072,12072,12072,12072,12120,12072,12072,12072,12016,11968,11968,11968,11968,11968,11968,11968,11968,11968,11968,11968,11968,11968,11912,11912,11864,11864,11864,11864,11816,11864,11816,11816,11816,11864,11816,11816,11816,11816,11816,11816,11816,11760,11760,11760,11760,11760,11760,11816,11864,11912,11912,11968,11968,12016,-8,-8,-8,-8,-8,-8,-8,-8,-8,-8,-8,-8,-8,-8,-8,-8,-8,-8,-8,20336,20480,20640,20792,20792,20952,20952,20952,21112,21112,21112,21112,21272,21112,21112,21112,21112,-8,-8,-8,-8,-8,-8,21112,21112,21272,21112,21272,21272,21272,21112,21112,21112,21112,21112,21112,21272,21272,21112,21112,21272,21272,-8,20640,20640,20640,21112,21112,21112,21112,21112,21112,21112,21112,21272,21272,21272,21272,21272,21272,21272,21440,21440,21272,21272,21440,21112,21112,20952,20952,20952,20952,20952,20952,20952,20952,20952,-8,-8,20952,20952,20952,20952,20792,20952,20952,21112,21112,21112,21272,21272,21272,-8,-8,-8,21112,21112,21112,21112,20952,20952,20952,20952,20952,20952,20952,21112,20952,21112,20952,20952,20952,20952,20952,20952,20952,20952,21112,21112,-8,-8,-8,-8,-8,-8,20952,21112,20952,20952,20792,20792,20792,20952,20952,20952,20952,-8,-8,-8,-8,-8,-8,-8,-8,21272,21440,21272,21272,21272,21272,21112,21112,21112,20952,21112,21272,21272,21112,21112,21272,21272,-8,-8,-8,-8,-8,-8,20480,20640,20792,20792,20792,20792,20792,20792,20792,20792,20792,20792,20952,20952,20952,21112,21112,21112,21112,21112,21112,21272,21272,20952,20952,21272,-8,-8,-8,-8,-8,-8,-8,-8,-8,-8,20792,20792,20792,20640,20640,20792,20792,20792,20480,20480,-8,-8,-8,-8,-8,-8,-8,-8,-8
-8,-8,-8,-8,-8,-8,-8,-8,-8,-8,-8,-8,-8,-8,-8,-8,-8,-8,-8,-8,-8,-8,-8,-8,-8,-8,-8,-8,-8,-8,-8,-8,-8,-8,-8,-8,-8,-8,-8,-8,-8,-8,-8,-8,-8,-8,-8,-8,-8,-8,-8,-8,-8,-8,-8,-8,-8,-8,-8,-8,-8,-8,-8,-8,-8,-8,-8,-8,-8,-8,-8,-8,-8,-8,-8,-8,-8,-8,-8,-8,-8,-8,-8,-8,-8,-8,-8,-8,-8,-8,-8,-8,-8,-8,-8,-8,-8,-8,-8,-8,-8,-8,-8,-8,-8,-8,-8,-8,-8,-8,-8,-8,-8,-8,-8,-8,-8,-8,-8,-8,-8,-8,-8,-8,-8,-8,-8,-8,-8,-8,-8,-8,-8,-8,-8,-8,-8,-8,-8,-8,-8,-8,-8,-8,-8,-8,-8,-8,-8,-8,-8,-8,-8,-8,-8,-8,-8,-8,-8,-8,-8,-8,-8,-8,-8,-8,-8,-8,-8,-8,-8,-8,-8,-8,-8,-8,-8,-8,-8,-8,-8,10672,-8,-8,-8,-8,-8,-8,-8,-8,-8,-8,-8,-8,-8,-8,-8,-8,-8,-8,-8,-8,-8,-8,-8,-8,-8,-8,-8,-8,-8,-8,-8,-8,-8,-8,-8,-8,-8,12856,12856,12856,12856,12856,12856,12800,12800,12800,12736,12736,12736,12856,12856,12856,12680,12680,12736,12736,12680,12680,12680,12680,12680,12680,12680,12680,12680,12680,12736,12736,12736,12736,12736,12680,12680,12680,12680,12624,12568,12568,12568,12568,12568,12568,12568,12568,12568,12624,12624,12568,12568,12568,12504,12504,12448,12448,12448,12448,12448,12448,12392,12392,12392,12448,12448,12392,12392,12392,12392,12392,12392,12336,12392,12392,12336,12336,12336,12336,12288,12232,12232,12176,12176,12176,12176,12176,12176,12176,12120,12120,12120,12120,12120,12120,12120,12120,12120,12120,12072,12120,12072,12072,12072,12072,12072,12072,12120,12072,12072,12072,12016,11968,11968,11968,11968,11968,11968,11968,11968,11968,11968,11912,11968,11912,11912,11912,11912,11864,11864,11864,11816,11864,11816,11816,11816,11864,11816,11816,11816,11816,11816,11816,11760,11760,11760,11760,11760,11760,11760,11816,11864,11912,11912,11968,11968,11968,-8,-8,-8,-8,-8,-8,-8,-8,-8,-8,-8,-8,-8,-8,-8,-8,-8,-8,-8,-8,-8,20640,20640,20792,20792,20952,20952,20952,21112,21112,21112,21112,21112,20336,20336,-8,-8,-8,-8,-8,21272,21272,21112,21112,21112,21112,21272,21112,21112,21112,21112,20952,21112,20952,21112,21112,21112,21112,20952,21112,21112,20640,20640,20640,20640,21112,21112,21112,21112,21112,21112,21112,21272,21112,21112,21112,21112,21112,21112,21440,21440,21440,21440,21440,21440,21112,21112,20792,20792,20640,20640,20640,20640,20640,-8,-8,-8,-8,20480,20792,20792,20792,20792,20792,20952,20952,20952,21112,21112,-8,-8,-8,-8,-8,-8,-8,20792,20792,20792,20792,20792,20792,20952,20792,20952,20952,20792,20792,20952,20952,20952,20792,20792,20792,20792,20792,20792,20952,20952,-8,20952,-8,-8,-8,20952,20952,20952,20792,20792,20792,20792,20792,20792,20792,20952,20952,-8,-8,-8,-8,-8,-8,-8,21440,21440,21272,21272,21272,21112,20952,20792,20952,20952,21112,21112,21112,21112,20952,21112,20952,20792,20640,20640,20640,20480,20480,20480,20640,20640,20792,20792,20792,20792,20792,20792,20792,20792,20792,20792,20952,20952,21112,21112,21112,21112,21112,20952,20952,20952,20640,20640,20480,-8,-8,-8,-8,-8,-8,-8,-8,20792,20952,20792,20792,20640,20640,20640,20640,20640,-8,20336,-8,-8,-8,-8,-8,-8,-8,-8,-8,-8
-8,-8,-8,-8,-8,-8,-8,-8,-8,-8,-8,-8,-8,-8,-8,-8,-8,-8,-8,-8,-8,-8,-8,-8,-8,-8,-8,-8,-8,-8,-8,-8,-8,-8,-8,-8,-8,-8,-8,-8,-8,-8,-8,-8,-8,-8,-8,-8,-8,-8,-8,-8,-8,-8,-8,-8,-8,-8,-8,-8,-8,-8,-8,-8,-8,-8,-8,-8,-8,-8,-8,-8,-8,-8,-8,-8,-8,-8,-8,-8,-8,-8,-8,-8,-8,-8,-8,-8,-8,-8,-8,-8,-8,-8,-8,-8,-8,-8,-8,-8,-8,-8,-8,-8,-8,-8,-8,-8,-8,-8,-8,-8,-8,-8,-8,-8,-8,-8,-8,-8,-8,-8,-8,-8,-8,-8,-8,-8,-8,-8,-8,-8,-8,-8,-8,-8,-8,-8,-8,-8,-8,-8,-8,-8,-8,-8,-8,-8,-8,-8,-8,-8,-8,-8,-8,-8,-8,-8,-8,-8,-8,-8,-8,-8,-8,-8,-8,-8,-8,-8,-8,-8,-8,-8,-8,-8,-8,-8,-8,-8,-8,-8,-8,-8,-8,-8,-8,-8,-8,-8,-8,-8,-8,-8,-8,-8,-8,-8,-8,-8,-8,-8,-8,-8,-8,-8,-8,-8,-8,-8,-8,-8,-8,-8,-8,-8,-8,-8,-8,12856,12856,12856,12856,12856,12800,12800,12736,12736,12736,12736,12736,12736,12736,12736,12736,12736,12736,12736,12680,12680,12680,12624,12624,12680,12680,12680,12680,12680,12736,12736,12736,12736,12736,12680,12680,12680,12680,12624,12568,12568,12568,12504,12504,12568,12504,12568,12568,12568,12568,12568,12568,12568,12568,12504,12448,12448,12392,12448,12392,12392,12392,12392,12392,12392,12392,12392,12392,12392,12392,12392,12392,12392,12392,12392,12392,12336,12336,12336,12288,12232,12232,12176,12176,12176,12176,12176,12176,12120,12120,12120,12120,12120,12120,12120,12120,12120,12120,12120,12072,12072,12072,12072,12072,12072,12072,12072,12120,12072,12072,12072,12016,11968,11968,12016,11968,11968,11968,11968,11968,11968,11968,11912,11968,11912,11912,11912,11912,11912,11912,11912,11864,11864,11816,11864,11864,11864,11864,11816,11864,11816,11816,11816,11816,11816,11760,11760,11760,11760,11760,11816,11816,11864,11912,11968,11968,-8,-8,-8,-8,-8,-8,-8,-8,-8,-8,-8,-8,-8,-8,-8,-8,-8,-8,-8,-8,-8,-8,20480,20640,20640,20792,20792,20952,20952,20952,20952,20952,20952,20336,20336,20336,-8,-8,-8,20480,20480,21272,21272,21112,21112,21112,21112,21112,21112,20952,20952,20952,20952,20952,20952,20952,20952,20952,20952,20792,20792,20640,20640,20640,20640,20640,20792,20952,20952,20952,20952,20952,20952,20952,20792,20792,20640,20640,21112,21112,21112,21272,21272,21112,21112,21112,20952,20952,20792,20792,20640,20640,20640,20640,20640,20640,20640,-8,-8,-8,-8,20792,20792,20640,20640,20792,-8,-8,-8,-8,-8,-8,-8,-8,-8,-8,-8,20336,20640,20640,20640,20792,20792,20792,20640,20792,20792,20640,20792,20792,20792,20792,20792,20792,20792,20792,20640,20640,20640,20792,20952,-8,20792,-8,20952,20792,20792,20952,20640,20792,20640,20640,20640,20640,20640,20792,20952,-8,-8,-8,-8,-8,-8,-8,21112,21272,21112,21112,21112,20952,20952,20480,20640,20952,20952,21112,20952,20952,20952,20952,20952,20640,20480,20480,20480,20336,20336,20336,20480,20480,20640,20640,20640,20640,20640,20640,20792,20792,20792,20792,20792,20952,20952,20952,20952,20952,20952,20952,20792,20640,20480,20480,20336,20480,20336,20184,20336,-8,-8,-8,-8,20480,20480,20640,20640,20640,20480,20336,20480,20480,-8,-8,-8,-8,-8,-8,-8,-8,-8,-8,-8,-8
-8,-8,-8,-8,-8,-8,-8,-8,-8,-8,-8,-8,-8,-8,-8,-8,-8,-8,-8,-8,-8,-8,-8,-8,-8,-8,-8,-8,-8,-8,-8,-8,-8,-8,-8,-8,-8,-8,-8,-8,-8,-8,-8,-8,-8,-8,-8,-8,-8,-8,-8,-8,-8,-8,-8,-8,-8,-8,-8,-8,-8,-8,-8,-8,-8,-8,-8,-8,-8,-8,-8,-8,-8,-8,-8,-8,-8,-8,-8,-8,-8,-8,-8,-8,-8,-8,-8,-8,-8,-8,-8,-8,-8,-8,-8,-8,-8,-8,-8,-8,-8,-8,-8,-8,-8,-8,-8,-8,-8,-8,-8,-8,-8,-8,-8,-8,-8,-8,-8,-8,-8,-8,-8,-8,-8,-8,-8,-8,-8,-8,-8,-8,-8,-8,-8,-8,-8,-8,-8,-8,-8,-8,-8,-8,-8,-8,-8,-8,-8,-8,-8,-8,-8,-8,-8,-8,-8,-8,-8,-8,-8,-8,-8,-8,-8,-8,-8,-8,-8,-8,-8,-8,-8,-8,-8,-8,-8,-8,-8,-8,-8,-8,-8,-8,-8,-8,-8,-8,-8,-8,-8,-8,-8,-8,-8,-8,-8,-8,-8,-8,-8,-8,-8,-8,-8,-8,-8,-8,-8,-8,-8,-8,-8,-8,-8,-8,-8,-8,12856,12856,12856,12856,12856,12856,12856,12800,12800,12800,12736,12800,12800,12736,12736,12736,12736,12736,12736,12736,12736,12680,12680,12680,12680,12680,12680,12680,12680,12680,12736,12736,12736,12736,12736,12680,12680,12680,12680,12624,12568,12568,12504,12504,12504,12504,12504,12568,12504,12568,12568,12568,12568,12504,12504,12448,12448,12448,12392,12448,12392,12392,12392,12392,12392,12392,12392,12392,12392,12392,12392,12392,12392,12336,12392,12392,12392,12336,12336,12288,12288,12232,12232,12176,12176,12176,12176,12120,12120,12120,12120,12120,12120,12120,12120,12120,12120,12120,12120,12120,12072,12072,12072,12072,12072,12072,12072,12072,12072,12072,12072,12072,12016,11968,11968,12016,11968,11968,11968,11968,11968,11968,11968,11912,11968,11968,11968,11912,11912,11912,11912,11912,11864,11864,11864,11864,11864,11864,11816,11816,11816,11816,11816,11816,11816,11760,11760,11760,11760,11760,11760,11816,11816,11864,11912,11968,11968,11968,-8,-8,-8,-8,-8,-8,-8,-8,-8,-8,-8,-8,-8,-8,-8,-8,-8,-8,-8,-8,-8,20480,20480,20640,20640,20792,20792,20792,20792,20640,20640,20480,20336,20336,20336,20336,-8,20480,20480,20480,-8,21112,20952,20952,21112,21112,20952,20952,20792,20792,20792,20792,20792,20792,20792,20792,20792,20792,20792,20640,20640,20640,20640,20640,20640,20640,20792,20952,20952,20792,20792,20792,20792,20792,-8,20640,20640,20480,20480,20480,20480,20480,20480,20640,20952,20952,20952,20640,20792,20640,20640,20480,20480,20480,20640,20640,-8,20480,20480,20480,20640,20640,20480,20640,20640,-8,-8,-8,-8,-8,-8,-8,-8,-8,-8,20336,-8,20336,20480,20640,20640,20640,20640,20640,20640,20640,20640,20640,20792,20792,20792,20792,20792,20792,20792,20640,20640,20640,20640,20792,20640,20792,20792,20792,20792,20792,20792,20480,20480,20480,20480,20480,20480,20480,20640,20792,20792,-8,-8,-8,-8,-8,-8,20952,21112,21112,21112,20792,20640,20640,20640,20792,20792,20952,20952,20792,20792,20792,20952,20792,20640,20336,20336,20336,20184,20184,20184,20336,20336,20480,20480,20480,20480,20480,20640,20640,20640,20640,20792,20792,20792,20792,20792,20952,20640,20792,20792,20792,20480,20336,20480,20336,20640,20640,-8,-8,-8,-8,-8,-8,20336,20336,20480,20480,20480,19752,19752,-8,-8,-8,-8,-8,-8,-8,-8,-8,-8,-8,-8,19896,19896
-8,-8,-8,-8,-8,-8,-8,-8,-8,-8,-8,-8,-8,-8,-8,-8,-8,-8,-8,-8,-8,-8,-8,-8,-8,-8,-8,-8,-8,-8,-8,-8,-8,-8,-8,-8,-8,-8,-8,-8,-8,-8,-8,-8,-8,-8,-8,-8,-8,-8,-8,-8,-8,-8,-8,-8,-8,-8,-8,-8,-8,-8,-8,-8,-8,-8,-8,-8,-8,-8,-8,-8,-8,-8,-8,-8,-8,-8,-8,-8,-8,-8,-8,-8,-8,-8,-8,-8,-8,-8,-8,-8,-8,-8,-8,-8,-8,-8,-8,-8,-8,-8,-8,-8,-8,-8,-8,-8,-8,-8,-8,-8,-8,-8,-8,-8,-8,-8,-8,-8,-8,-8,-8,-8,-8,-8,-8,-8,-8,-8,-8,-8,-8,-8,-8,-8,-8,-8,-8,-8,-8,-8,-8,-8,-8,-8,-8,-8,-8,-8,-8,-8,-8,-8,-8,-8,-8,-8,-8,-8,-8,-8,-8,-8,-8,-8,-8,-8,-8,-8,-8,-8,-8,-8,-8,-8,-8,-8,-8,-8,-8,-8,-8,-8,-8,-8,-8,-8,-8,-8,-8,-8,-8,-8,-8,-8,-8,-8,-8,-8,-8,-8,-8,-8,-8,-8,-8,-8,-8,-8,-8,-8,-8,-8,-8,-8,-8,12920,12920,12856,12856,12800,12800,12856,12856,12800,-8,-8,-8,-8,-8,-8,12736,12736,12736,12736,12736,12736,12680,12680,12680,12680,12680,12680,12680,12680,12680,12680,12736,12736,12736,12736,12736,12680,12680,12680,12680,12624,12624,12568,12568,12504,12504,12504,12504,12504,12504,12504,12504,12504,12504,12504,12504,12448,12448,12448,12392,12392,12392,12392,12392,12392,12392,12392,12392,12392,12392,12392,12392,12392,12392,12392,12336,12392,12336,12336,12288,12288,12288,12232,12232,12176,12176,12176,12176,12120,12120,12120,12120,12120,12120,12120,12176,12120,12120,12120,12120,12120,12120,12120,12072,12072,12072,12072,12072,12016,12072,12072,12072,12016,12016,11968,11968,11968,11968,11968,11912,11912,11968,11968,11968,11912,11968,11968,11968,11912,11912,11912,11912,11912,11864,11864,11864,11864,11864,11864,11816,11816,11816,11816,11816,11816,11816,11816,11760,11760,11760,11760,11760,11816,11816,11864,11912,11912,11912,-8,-8,-8,-8,-8,-8,-8,-8,-8,-8,-8,-8,-8,-8,-8,-8,-8,-8,-8,-8,-8,-8,-8,20480,20480,20640,20640,20640,20640,20640,20480,20480,20336,20336,20336,20184,20184,20336,20336,20336,20480,20952,20952,20792,20792,20952,20952,20952,20952,20792,20640,20640,20792,20640,20792,20640,20640,20792,20640,20640,20480,20480,20480,20480,20480,20480,20480,20480,20480,20480,20480,20480,20640,20640,20640,20792,20640,20640,20480,20480,20480,20336,20480,20480,20640,20640,20792,20640,20480,20480,20480,20480,20480,20336,20336,20480,20480,20480,20480,20480,20480,20480,20480,20480,20480,20480,-8,-8,-8,-8,-8,-8,-8,-8,-8,-8,-8,20336,20336,20480,20640,20640,20640,20640,20640,20640,20640,20640,20640,20792,20792,20792,20792,20640,20640,20640,20640,20640,20640,20640,20792,20640,20792,20792,20792,20792,20792,20792,20336,20336,20336,20336,20336,20336,20336,20480,20480,-8,-8,-8,-8,-8,-8,-8,-8,20184,20952,20952,20952,20640,20640,20480,20640,20792,20792,20792,20792,20792,20792,20952,20640,20480,20336,20336,20184,20184,20184,20184,20336,20336,20336,20480,20336,20480,20480,20480,20480,20640,20640,20640,20640,20792,20792,20792,20792,20480,20640,20640,20640,20480,20480,20480,20480,20792,20640,-8,-8,-8,-8,-8,-8,20184,20184,20336,20336,19752,19752,19752,-8,-8,-8,-8,-8,-8,-8,-8,-8,-8,-8,19608,19752,19752
-8,-8,-8,-8,-8,-8,-8,-8,-8,-8,-8,-8,-8,-8,-8,-8,-8,-8,-8,-8,-8,-8,-8,-8,-8,-8,-8,-8,-8,-8,-8,-8,-8,-8,-8,-8,-8,-8,-8,-8,-8,-8,-8,-8,-8,-8,-8,-8,-8,-8,-8,-8,-8,-8,-8,-8,-8,-8,-8,-8,-8,-8,-8,-8,-8,-8,-8,-8,-8,-8,-8,-8,-8,-8,-8,-8,-8,-8,-8,-8,-8,-8,-8,-8,-8,-8,-8,-8,-8,-8,-8,-8,-8,-8,-8,-8,-8,-8,-8,-8,-8,-8,-8,-8,-8,-8,-8,-8,-8,-8,-8,-8,-8,-8,-8,-8,-8,-8,-8,-8,-8,-8,-8,-8,-8,-8,-8,-8,-8,-8,-8,-8,-8,-8,-8,-8,-8,-8,-8,-8,-8,-8,-8,-8,-8,-8,-8,-8,-8,-8,-8,-8,-8,-8,-8,-8,-8,-8,-8,-8,-8,-8,-8,-8,-8,-8,-8,-8,-8,-8,-8,-8,-8,-8,-8,-8,-8,-8,-8,-8,-8,-8,-8,-8,-8,-8,-8,-8,-8,-8,-8,-8,-8,-8,-8,-8,-8,-8,-8,-8,-8,-8,-8,-8,-8,-8,-8,-8,-8,-8,-8,-8,-8,-8,-8,-8,-8,12920,12920,12920,12856,-8,-8,12856,-8,-8,-8,-8,-8,-8,-8,-8,-8,-8,-8,12736,12736,12736,12680,12680,12680,12680,12680,12680,12680,12680,12680,12680,12680,12736,12680,12680,12680,12680,12680,12680,12680,12624,12624,12568,12568,12568,12504,12504,12504,12504,12504,12504,12504,12504,12504,12504,12504,12448,12448,12448,12448,12392,12392,12392,12392,12392,12392,12392,12392,12392,12392,12392,12392,12392,12392,12392,12336,12392,12392,12336,12336,12288,12288,12232,12232,12176,12176,12176,12176,12176,12120,12120,12120,12120,12120,12120,12176,12176,12120,12176,12176,12176,12120,12120,12072,12120,12120,12072,12072,12016,12016,12016,12016,12016,11968,11968,11968,11968,11968,11912,11912,11912,11912,11912,11968,11912,11968,11968,11968,11912,11912,11912,11912,11912,11912,11864,11864,11864,11864,11816,11816,11816,11816,11816,11816,11816,11816,11816,11760,11760,11760,11760,11760,11816,11816,11864,11912,11912,11912,11968,-8,-8,-8,-8,-8,-8,-8,-8,-8,-8,-8,-8,-8,-8,-8,-8,-8,-8,-8,-8,-8,-8,20480,20480,20480,20640,20640,20640,20640,20480,20480,20336,20184,20184,20184,20040,20184,20336,20336,20480,20640,20792,20792,20792,20952,20952,20952,20480,20480,20480,20480,20640,20480,20640,20640,20480,20640,20480,20480,20480,20480,20480,20336,20480,20336,20336,20480,20480,20336,20336,20336,20480,20480,20640,20792,20480,20480,20480,20480,20480,20336,20336,20336,20336,20336,20480,20480,20336,20336,20336,20336,20336,20336,20336,20336,20336,20336,20480,20336,20336,20336,20336,20336,20480,20336,-8,-8,-8,-8,-8,-8,-8,-8,-8,20040,20184,20336,20336,20336,20480,20480,20480,20480,20480,20480,20480,20480,20480,20640,20640,20640,20640,20640,20640,20640,20480,20480,20640,20640,20640,20480,20792,20792,20640,20640,20640,20336,20336,20336,20336,20336,20336,20336,20336,20336,20480,20480,-8,-8,-8,-8,-8,-8,-8,20184,20184,20336,20336,20480,20480,20336,20640,20792,20792,20792,20792,20792,20792,20952,20792,20480,20336,20336,20184,20184,20184,20184,20336,20336,20336,20336,20336,20480,20480,20480,20480,20480,20480,20640,20640,20640,20640,20640,20480,20336,20480,20480,20480,20480,20336,20480,20480,20640,20792,20792,-8,19608,-8,-8,-8,19896,19896,20184,20184,19752,19752,19752,-8,-8,-8,-8,-8,-8,-8,-8,-8,19752,19752,19608,19752,19752
-8,-8,-8,-8,-8,-8,-8,-8,-8,-8,-8,-8,-8,-8,-8,-8,-8,-8,-8,-8,-8,-8,-8,-8,-8,-8,-8,-8,-8,-8,-8,-8,-8,-8,-8,-8,-8,-8,-8,-8,-8,-8,-8,-8,-8,-8,-8,-8,-8,-8,-8,-8,-8,-8,-8,-8,-8,-8,-8,-8,-8,-8,-8,-8,-8,-8,-8,-8,-8,-8,-8,-8,-8,-8,-8,-8,-8,-8,-8,-8,-8,-8,-8,-8,-8,-8,-8,-8,-8,-8,-8,-8,-8,-8,-8,-8,-8,-8,-8,-8,-8,-8,-8,-8,-8,-8,-8,-8,-8,-8,-8,-8,-8,-8,-8,-8,-8,-8,-8,-8,-8,-8,-8,-8,-8,-8,-8,-8,-8,-8,-8,-8,-8,-8,-8,-8,-8,-8,-8,-8,-8,-8,-8,-8,-8,-8,-8,-8,-8,-8,-8,-8,-8,-8,-8,-8,-8,-8,-8,-8,-8,-8,-8,-8,-8,-8,-8,-8,-8,-8,-8,-8,-8,-8,-8,-8,-8,-8,-8,-8,-8,-8,-8,-8,-8,-8,-8,-8,-8,-8,-8,-8,-8,-8,-8,-8,-8,-8,-8,-8,-8,-8,-8,-8,-8,-8,-8,-8,-8,-8,-8,-8,-8,-8,-8,-8,-8,-8,12920,12856,-8,-8,-8,-8,-8,-8,-8,-8,-8,-8,-8,-8,-8,-8,-8,-8,12680,12680,12680,12680,12680,12680,12680,12680,12680,12680,12680,12680,12680,12680,12680,12680,12680,12680,12680,12680,12624,12624,12624,12568,12568,12568,12504,12448,12448,12504,12448,12448,12448,12448,12504,12504,12504,12448,12448,12448,12448,12448,12392,12392,12392,12392,12392,12392,12392,12336,12392,12392,12336,12336,12392,12392,12392,12392,12392,12336,12336,12288,12288,12232,12232,12176,12176,12176,12176,12176,12176,12120,12120,12120,12120,12120,12176,12176,12176,12176,12176,12176,12176,12120,12120,12120,12120,12120,12072,12072,12072,12072,12072,12016,11968,11968,11968,11968,11912,11912,11912,11912,11912,11912,11968,11912,11968,11968,11968,11968,11912,11912,11912,11912,11912,11912,11864,11864,11864,11816,11816,11816,11816,11816,11760,11760,11760,11760,11760,11760,11760,11760,11760,11760,11816,11864,11912,11968,11968,-8,-8,-8,-8,-8,-8,-8,-8,-8,-8,-8,-8,-8,-8,-8,-8,-8,-8,-8,-8,-8,-8,-8,20480,20480,20480,20480,20480,20480,20480,20336,20336,20040,20040,20184,20040,20040,20040,20184,20336,20336,20480,20640,20480,20480,20640,20640,20640,20480,20480,20480,20480,20480,20480,20480,20480,20480,20480,20336,20336,20336,20336,20336,20184,20184,20184,20184,20336,20336,20184,20040,20184,20336,20336,20480,20336,20336,20336,20336,20336,20336,20336,20336,20336,20336,20336,20336,20480,20336,20480,20480,20480,20336,20336,20336,20336,20184,20336,20184,20184,20184,20184,20336,20184,20336,20336,-8,-8,-8,-8,-8,-8,19752,19752,19896,19896,20040,20184,20184,20336,20336,20480,20336,20480,20480,20480,20480,20480,20480,20480,20480,20480,20480,20480,20480,20480,20480,20480,20480,20480,20640,20480,20640,20480,20480,20480,20480,20480,20336,20336,20336,20336,20336,20336,20184,20336,20336,20336,20336,-8,-8,-8,-8,-8,20184,20184,20184,20040,20040,20184,20336,20336,20336,20480,20480,20336,20640,20640,20480,20640,20480,20336,20336,20184,20040,20040,20040,20040,20184,20184,20336,20336,20336,20336,20336,20480,20480,20480,20640,20640,20640,20640,20792,20792,20336,20336,20336,20336,20336,20336,20336,20336,20336,20792,20792,19608,19608,19608,19608,19752,19752,19752,19752,19896,20040,19752,19752,19752,19752,19896,-8,-8,19608,-8,-8,19608,19608,19608,19752,19608,19608,19752
-8,-8,-8,-8,-8,-8,-8,-8,-8,-8,-8,-8,-8,-8,-8,-8,-8,-8,-8,-8,-8,-8,-8,-8,-8,-8,-8,-8,-8,-8,-8,-8,-8,-8,-8,-8,-8,-8,-8,-8,-8,-8,-8,-8,-8,-8,-8,-8,-8,-8,-8,-8,-8,-8,-8,-8,-8,-8,-8,-8,-8,-8,-8,-8,-8,-8,-8,-8,-8,-8,-8,-8,-8,-8,-8,-8,-8,-8,-8,-8,-8,-8,-8,-8,-8,-8,-8,-8,-8,-8,-8,-8,-8,-8,-8,-8,-8,-8,-8,-8,-8,-8,-8,-8,-8,-8,-8,-8,-8,-8,-8,-8,-8,-8,-8,-8,-8,-8,-8,-8,-8,-8,-8,-8,-8,-8,-8,-8,-8,-8,-8,-8,-8,-8,-8,-8,-8,-8,-8,-8,-8,-8,-8,-8,-8,-8,-8,-8,-8,-8,-8,-8,-8,-8,-8,-8,-8,-8,-8,-8,-8,-8,-8,-8,-8,-8,-8,-8,-8,-8,-8,-8,-8,-8,-8,-8,-8,-8,-8,-8,-8,-8,-8,-8,-8,-8,-8,-8,-8,-8,-8,-8,-8,-8,-8,-8,-8,-8,-8,-8,-8,-8,-8,-8,-8,-8,-8,-8,-8,-8,-8,-8,-8,-8,-8,-8,-8,-8,-8,-8,-8,-8,-8,-8,-8,-8,-8,-8,-8,-8,-8,-8,-8,-8,-8,-8,-8,12680,12680,12680,12680,12680,12680,12680,12680,12680,12680,12680,12680,12680,12680,12680,12680,12680,12680,12624,12624,12624,12624,12624,12568,12568,12504,12504,12504,12504,12448,12448,12504,12448,12504,12504,12448,12448,12448,12448,12448,12448,12392,12392,12392,12392,12392,12392,12392,12336,12392,12392,12336,12392,12392,12392,12392,12392,12392,12336,12336,12288,12232,12176,12176,12176,12176,12176,12120,12176,12176,12176,12120,12176,12176,12176,12176,12176,12176,12176,12176,12120,12120,12120,12072,12120,12120,12072,12072,12072,12072,12072,12072,12016,11968,11968,11968,11968,11912,11912,11912,11912,11912,11912,11968,11912,11968,11968,11912,11912,11912,11912,11912,11912,11912,11912,11864,11864,11864,11816,11816,11816,11816,11816,11760,11760,11760,11760,11760,11760,11760,11760,11760,11760,11816,11816,11912,11968,-8,-8,-8,-8,-8,-8,-8,-8,-8,-8,-8,-8,-8,-8,-8,-8,-8,-8,-8,-8,-8,-8,-8,-8,-8,20480,20480,20336,20336,20480,20480,20336,20336,20040,20040,20184,20040,20040,20040,20184,20184,20336,20336,20336,20480,20480,20480,20480,20336,20480,20480,20336,20336,20336,-8,20336,20336,20336,20336,20336,20336,20184,20184,20184,20040,20184,20040,20040,20040,20040,19896,19896,20040,20040,20040,20184,20184,20184,20184,20336,20336,20336,20336,20336,20184,20336,20336,-8,-8,-8,-8,-8,20480,20336,20336,20336,20336,20184,20184,20184,20040,20040,20040,20184,20184,20336,-8,-8,-8,-8,-8,-8,-8,19752,19752,19896,20040,20040,20184,20184,20184,20336,20336,20336,20184,20184,20184,-8,20336,20336,20336,20336,20336,20480,20480,20480,-8,-8,-8,-8,-8,-8,19752,20336,20336,20336,20336,20336,20184,20184,20184,20184,20184,20184,20184,20184,20184,20336,20184,20184,20184,20184,20184,20184,20040,20040,20184,20040,20040,20040,20040,20184,20184,20336,20184,20184,20184,20336,20336,20336,20336,20184,20336,20336,20336,19896,19896,19896,20040,20184,20336,20336,20336,20336,20336,20336,20336,20336,20336,-8,20336,20336,20336,20480,20480,20336,20336,20336,20336,20336,20336,20184,20184,20184,20184,19608,19608,19608,19608,19752,19752,19752,19752,19752,19752,19896,19752,19752,19752,19752,19896,19896,-8,19608,19608,19752,19608,19752,19608,19752,19608,19608,19608
-8,-8,-8,-8,-8,-8,-8,-8,-8,-8,-8,-8,-8,-8,-8,-8,-8,-8,-8,-8,-8,-8,-8,-8,-8,-8,-8,-8,-8,-8,-8,-8,-8,-8,-8,-8,-8,-8,-8,-8,-8,-8,-8,-8,-8,-8,-8,-8,-8,-8,-8,-8,-8,-8,-8,-8,-8,-8,-8,-8,-8,-8,-8,-8,-8,-8,-8,-8,-8,-8,-8,-8,-8,-8,-8,-8,-8,-8,-8,-8,-8,-8,-8,-8,-8,-8,-8,-8,-8,-8,-8,-8,-8,-8,-8,-8,-8,-8,-8,-8,-8,-8,-8,-8,-8,-8,-8,-8,-8,-8,-8,-8,-8,-8,-8,-8,-8,-8,-8,-8,-8,-8,-8,-8,-8,-8,-8,-8,-8,-8,-8,-8,-8,-8,-8,-8,-8,-8,-8,-8,-8,-8,-8,-8,-8,-8,-8,-8,-8,-8,-8,-8,-8,-8,-8,-8,-8,-8,-8,-8,-8,-8,-8,-8,-8,-8,-8,-8,-8,-8,-8,-8,-8,-8,-8,-8,-8,-8,-8,-8,-8,-8,-8,-8,-8,-8,-8,-8,-8,-8,-8,-8,-8,-8,-8,-8,-8,-8,-8,-8,-8,-8,-8,-8,-8,-8,-8,-8,-8,-8,-8,-8,-8,-8,-8,-8,-8,-8,-8,-8,-8,-8,-8,-8,-8,-8,-8,-8,-8,-8,-8,-8,-8,-8,-8,-8,-8,12736,12736,12736,12736,12680,12680,12680,12680,12680,12680,12680,12680,12680,12680,12680,12680,12680,12624,12624,12624,12624,12624,12624,12568,12568,12504,12504,12504,12504,12448,12448,12448,12448,12504,12504,12448,12448,12448,12448,12448,12448,12392,12392,12392,12392,12392,12392,12392,12392,12392,12392,12336,12336,12392,12392,12336,12392,12336,12288,12288,12288,12232,12176,12176,12176,12176,12176,12120,12120,12176,12176,12176,12176,12176,12176,12176,12176,12176,12176,12176,12120,12120,12120,12072,12072,12072,12072,12072,12016,12016,12016,12072,12016,11968,11968,11968,11968,11968,11968,11912,11912,11912,11968,11968,11912,11912,11912,11912,11912,11912,11912,11912,11912,11912,11912,11864,11864,11864,11816,11816,11816,11816,11816,11760,11760,11760,11760,11760,11760,11760,11760,11760,11760,11816,11816,11912,11968,-8,-8,-8,-8,-8,-8,-8,-8,-8,-8,-8,-8,-8,-8,-8,-8,-8,-8,-8,-8,-8,-8,-8,-8,-8,-8,-8,-8,-8,19896,19896,19752,19896,19896,19896,20040,19896,19896,19896,20040,20184,20336,20184,20184,20336,20336,20336,20336,20336,20336,20336,20336,20184,20184,19896,20184,20184,20184,20040,20184,20184,20040,20184,20040,20040,20040,20040,19896,19896,19896,19896,19896,19896,19896,19896,20040,20040,20184,20184,20336,20336,20336,20336,20184,20184,20184,20184,-8,-8,-8,-8,-8,-8,20336,20336,20336,20184,20040,20184,20184,20040,20184,20040,20184,20184,20184,20040,20040,-8,-8,-8,-8,-8,19752,19752,19896,19896,19896,20184,20184,20184,20184,20336,20184,20184,20184,20184,-8,-8,20336,20480,-8,-8,-8,20336,-8,-8,-8,-8,-8,-8,19752,19752,19752,20040,20040,20184,20040,19896,20040,20040,20184,20184,20184,20184,20184,20336,20336,20184,20184,20184,20184,20040,20040,20040,20040,20040,20040,20040,20040,20040,20184,20184,20184,20184,20040,20184,20336,20184,20184,20184,20184,20184,20184,20040,19752,19752,19752,19896,20184,20184,20336,20336,20336,20336,20336,20336,20336,-8,-8,-8,20184,20184,20184,20336,20184,20184,20184,20184,20184,20184,20040,19896,19608,19608,19608,19608,19608,19608,19752,19752,19752,19752,19752,19896,20040,19896,19896,19752,19752,19752,19608,19608,19608,19608,19608,19608,19608,19608,19608,19608,19608,19608
-8,-8,-8,-8,-8,-8,-8,-8,-8,-8,-8,-8,-8,-8,-8,-8,-8,-8,-8,-8,-8,-8,-8,-8,-8,-8,-8,-8,-8,-8,-8,-8,-8,-8,-8,-8,-8,-8,-8,-8,-8,-8,-8,-8,-8,-8,-8,-8,-8,-8,-8,-8,-8,-8,-8,-8,-8,-8,-8,-8,-8,-8,-8,-8,-8,-8,-8,-8,-8,-8,-8,-8,-8,-8,-8,-8,-8,-8,-8,-8,-8,-8,-8,-8,-8,-8,-8,-8,-8,-8,-8,-8,-8,-8,-8,-8,-8,-8,-8,-8,-8,-8,-8,-8,-8,-8,-8,-8,-8,-8,-8,-8,-8,-8,-8,-8,-8,-8,-8,-8,-8,-8,-8,-8,-8,-8,-8,-8,-8,-8,-8,-8,-8,-8,-8,-8,-8,-8,-8,-8,-8,-8,-8,-8,-8,-8,-8,-8,-8,-8,-8,-8,-8,-8,-8,-8,-8,-8,-8,-8,-8,-8,-8,-8,-8,-8,-8,-8,-8,-8,-8,-8,-8,-8,-8,-8,-8,-8,-8,-8,-8,-8,-8,-8,-8,-8,-8,-8,-8,-8,-8,-8,-8,-8,-8,-8,-8,-8,-8,-8,-8,-8,-8,-8,-8,-8,-8,-8,-8,-8,-8,-8,-8,-8,-8,-8,-8,-8,-8,-8,-8,-8,-8,-8,-8,-8,-8,-8,-8,-8,-8,-8,-8,-8,-8,-8,-8,-8,12736,12736,12736,12680,12680,12680,12680,12624,12680,12680,12680,12680,12680,12680,12624,12624,12624,12624,12624,12624,12624,12624,12568,12504,12504,12504,12504,12448,12448,12448,12448,12448,12504,12448,12448,12448,12448,12448,12448,12448,12392,12392,12392,12392,12392,12392,12392,12392,12392,12392,12336,12336,12336,12336,12336,12336,12336,12288,12288,12288,12232,12176,12176,12176,12176,12176,12120,12120,12176,12176,12176,12176,12176,12176,12176,12176,12176,12176,12176,12120,12120,12072,12072,12072,12072,12016,12016,11968,12016,12016,12016,12016,11968,11968,11968,11968,11968,11968,11912,11912,11912,11912,11968,11912,11912,11912,11912,11912,11912,11912,11912,11912,11912,11912,11912,11864,11864,11864,11816,11816,11816,11816,11760,11760,11760,11760,11760,11760,11760,11760,11760,11760,11760,11760,11816,-8,-8,-8,-8,-8,-8,-8,-8,-8,-8,-8,-8,-8,-8,-8,-8,-8,-8,-8,-8,-8,-8,-8,-8,-8,-8,-8,-8,-8,19752,19896,19896,19752,19752,19752,19896,19896,19896,19896,19896,20040,20040,20184,19896,20040,20040,20040,19752,20040,20040,20040,20040,20040,20040,20040,19896,19896,19896,19896,20040,20040,20040,20040,20040,19896,19896,19896,19896,19896,19896,19896,19896,19896,19896,19896,19896,20040,19896,20040,20184,20184,20040,20040,20184,20040,20184,20184,19752,-8,-8,-8,-8,-8,-8,-8,-8,-8,20184,19896,20040,20040,20040,20040,20040,20184,20184,20184,20040,20040,-8,-8,-8,-8,-8,19752,19752,19896,19896,20040,20040,20040,20184,20184,20184,20184,20184,20184,-8,-8,-8,20336,20336,-8,-8,-8,-8,-8,-8,-8,-8,-8,-8,19752,19752,19752,19608,19752,19752,19752,19752,19896,19896,20040,20184,20184,20184,20184,20184,20184,20184,20184,20040,20040,20040,20040,20040,20040,20184,20184,20040,20040,20040,20040,20040,20040,19896,19752,-8,20184,-8,20184,-8,-8,-8,-8,-8,19752,19608,19752,19752,19896,19896,20040,20184,20184,20336,20336,20336,20184,-8,-8,19896,20040,20040,20040,20184,20184,20184,20184,20184,20040,20040,19896,19896,19896,19608,19896,19608,19608,19608,19752,19752,19752,19608,19608,19752,19752,19752,19752,19608,19608,-8,-8,19472,19472,19608,19608,19472,19608,19472,19608,19608,19608,19608
-8,-8,-8,-8,-8,-8,-8,-8,-8,-8,-8,-8,-8,-8,-8,-8,-8,-8,-8,-8,-8,-8,-8,-8,-8,-8,-8,-8,-8,-8,-8,-8,-8,-8,-8,-8,-8,-8,-8,-8,-8,-8,-8,-8,-8,-8,-8,-8,-8,-8,-8,-8,-8,-8,-8,-8,-8,-8,-8,-8,-8,-8,-8,-8,-8,-8,-8,-8,-8,-8,-8,-8,-8,-8,-8,-8,-8,-8,-8,-8,-8,-8,-8,-8,-8,-8,-8,-8,-8,-8,-8,-8,-8,-8,-8,-8,-8,-8,-8,-8,-8,-8,-8,-8,-8,-8,-8,-8,-8,-8,-8,-8,-8,-8,-8,-8,-8,-8,-8,-8,-8,-8,-8,-8,-8,-8,-8,-8,-8,-8,-8,-8,-8,-8,-8,-8,-8,-8,-8,-8,-8,-8,-8,-8,-8,-8,-8,-8,-8,-8,-8,-8,-8,-8,-8,-8,-8,-8,-8,-8,-8,-8,-8,-8,-8,-8,-8,-8,-8,-8,-8,-8,-8,-8,-8,-8,-8,-8,-8,-8,-8,-8,-8,-8,-8,-8,-8,-8,-8,-8,-8,-8,-8,-8,-8,-8,-8,-8,-8,-8,-8,-8,-8,-8,-8,-8,-8,-8,-8,-8,-8,-8,-8,-8,-8,-8,-8,-8,-8,-8,-8,-8,-8,-8,-8,-8,-8,-8,-8,-8,-8,-8,-8,-8,-8,-8,-8,-8,-8,12736,12736,12680,12680,12680,12680,12624,12680,12680,12680,12680,12680,12680,12680,12680,12624,12624,12624,12624,12624,12624,12568,12568,12504,12504,12504,12448,12448,12448,12448,12448,12504,12448,12504,12448,12448,12448,12448,12448,12448,12448,12448,12448,12448,12448,12392,12392,12392,12392,12392,12392,12392,12336,12336,12336,12336,12288,12288,12288,12232,12176,12176,12232,12176,12176,12176,12176,12176,12176,12120,12120,12176,12176,12176,12176,12176,12120,12120,12120,12120,12120,12072,12072,12016,12016,12016,11968,12016,11968,12016,12016,11968,11968,11968,11968,11912,11968,11912,11912,11912,11912,11968,11912,11912,11864,11912,11912,11864,11912,11864,11912,11912,11912,11864,11864,11864,11816,11816,11816,11816,11760,11760,11760,11760,11760,11760,11760,11760,11760,11760,11760,11760,11816,11864,-8,-8,-8,-8,-8,-8,-8,-8,-8,-8,-8,-8,-8,-8,-8,-8,-8,-8,-8,-8,-8,-8,-8,-8,-8,-8,-8,-8,19752,19752,19752,19752,19608,19608,19608,19752,19752,19752,19752,19896,19896,19896,19896,19752,19752,19752,19608,19752,19752,20040,20040,20040,20040,20040,19896,19896,19896,19896,19896,19896,19896,19896,19896,19896,19896,19896,19896,19752,19752,19752,19752,19752,19752,19896,19896,19752,19896,19752,19752,19752,19752,19752,19752,19752,19752,19752,19896,19752,19752,19752,-8,-8,-8,-8,-8,-8,19752,19752,19896,19896,20040,20040,20040,20040,20040,20040,20040,20040,19896,19896,19896,19752,19752,-8,19896,19752,19752,19752,20184,20184,20184,20184,20184,20184,20184,20040,20040,-8,-8,-8,-8,-8,-8,-8,-8,-8,-8,-8,-8,-8,-8,-8,19752,19608,19608,19472,19608,19608,19752,19752,19752,19896,20040,20040,20040,20184,20184,20184,20336,20336,20336,19608,19752,19752,19752,19752,19752,19896,19896,20040,20040,20040,20040,19896,19896,19896,19752,19752,-8,-8,-8,-8,-8,-8,-8,-8,-8,-8,19472,19472,19608,19608,19752,20040,20184,20184,20184,20184,20184,19896,19896,19896,19896,19896,19896,20040,20040,20040,20040,20040,20040,19896,19896,19752,19752,19896,19752,19752,19752,19752,19752,19752,19752,19608,19608,19608,19608,19608,19608,19608,19608,-8,-8,19472,19472,19472,19472,19336,19472,19472,19472,19608,19752,19608
-8,-8,-8,-8,-8,-8,-8,-8,-8,-8,-8,-8,-8,-8,-8,-8,-8,-8,-8,-8,-8,-8,-8,-8,-8,-8,-8,-8,-8,-8,-8,-8,-8,-8,-8,-8,-8,-8,-8,-8,-8,-8,-8,-8,-8,-8,-8,-8,-8,-8,-8,-8,-8,-8,-8,-8,-8,-8,-8,-8,-8,-8,-8,-8,-8,-8,-8,-8,-8,-8,-8,-8,-8,-8,-8,-8,-8,-8,-8,-8,-8,-8,-8,-8,-8,-8,-8,-8,-8,-8,-8,-8,-8,-8,-8,-8,-8,-8,-8,-8,-8,-8,-8,-8,-8,-8,-8,-8,-8,-8,-8,-8,-8,-8,-8,-8,-8,-8,-8,-8,-8,-8,-8,-8,-8,-8,-8,-8,-8,-8,-8,-8,-8,-8,-8,-8,-8,-8,-8,-8,-8,-8,-8,-8,-8,-8,-8,-8,-8,-8,-8,-8,-8,-8,-8,-8,-8,-8,-8,-8,-8,-8,-8,-8,-8,-8,-8,-8,-8,-8,-8,-8,-8,-8,-8,-8,-8,-8,-8,-8,-8,-8,-8,-8,-8,-8,-8,-8,-8,-8,-8,-8,-8,-8,-8,-8,-8,-8,-8,-8,-8,-8,-8,-8,-8,-8,-8,-8,-8,-8,-8,-8,-8,-8,-8,-8,-8,-8,-8,-8,-8,-8,-8,-8,-8,-8,-8,-8,-8,-8,-8,-8,-8,-8,-8,-8,-8,-8,-8,-8,-8,-8,12680,-8,-8,12624,12680,12680,12680,12680,12680,12680,12624,12624,12624,12624,-8,12568,12624,12624,12504,12504,12448,12448,12448,12448,12448,12448,12448,12448,12448,12448,12448,12448,12448,12448,12448,12448,12448,12448,12448,12448,12448,12448,12392,12392,12392,12392,12392,12392,12336,12336,12336,12336,12336,12336,12336,12288,12288,12176,12176,12232,12176,12176,12176,12176,12176,12176,12176,12176,12176,12176,12176,12176,12120,12120,12120,12120,12120,12120,12072,12072,12072,12072,12016,12016,12016,12016,12016,12016,11968,11968,11968,11968,11968,11968,11912,11912,11912,11912,11912,11912,11864,11864,11864,11912,11864,11912,11864,11912,11912,11912,11912,11912,11864,11864,11864,11816,11816,11760,11760,11760,11760,11760,11760,11760,11760,11760,11760,11760,11760,11816,-8,-8,-8,-8,-8,-8,-8,-8,-8,-8,-8,-8,-8,-8,-8,-8,-8,-8,-8,-8,-8,-8,-8,-8,-8,-8,-8,-8,-8,19608,19752,19608,19472,19608,19608,19608,19608,19608,19608,19752,19752,19752,19752,19608,19608,19472,19472,19608,19752,19752,19752,19752,19896,19896,19896,19752,19752,19752,19752,19752,19896,19896,19896,19896,19896,19752,19752,19752,19752,19752,19608,19608,19608,19608,19752,19608,19608,19608,19472,19608,19608,19472,19752,19752,19752,19752,19896,19896,19752,19752,-8,-8,-8,-8,-8,-8,-8,-8,19608,19752,19896,19896,19896,19896,19896,19896,19896,19896,19896,19752,19752,19752,19752,19752,19752,19752,19608,19752,19752,19896,19896,19896,19896,19896,20040,19896,19896,19896,-8,-8,-8,-8,-8,-8,-8,-8,-8,-8,-8,-8,-8,-8,-8,19608,19608,19472,19472,19608,19608,19608,19752,19752,19752,19896,20040,20040,20040,20184,20184,20184,19608,19608,19608,19608,19608,19608,19608,19608,19752,19752,19752,19896,19896,19896,19896,19896,19896,19752,19752,-8,-8,-8,-8,-8,-8,-8,-8,-8,-8,-8,19472,19472,19608,19608,19752,19896,20040,20040,20040,20040,19896,19896,19896,19752,19896,19896,19896,19896,20040,20040,19896,19896,19896,19896,19896,19752,19896,19896,19896,19896,19752,19752,19752,19752,19752,19608,19608,19608,19608,19608,19608,19608,19608,19472,19200,19200,19336,19336,19336,19472,19608,19608,19608,19608,19608
-8,-8,-8,-8,-8,-8,-8,-8,-8,-8,-8,-8,-8,-8,-8,-8,-8,-8,-8,-8,-8,-8,-8,-8,-8,-8,-8,-8,-8,-8,-8,-8,-8,-8,-8,-8,-8,-8,-8,-8,-8,-8,-8,-8,-8,-8,-8,-8,-8,-8,-8,-8,-8,-8,-8,-8,-8,-8,-8,-8,-8,-8,-8,-8,-8,-8,-8,-8,-8,-8,-8,-8,-8,-8,-8,-8,-8,-8,-8,-8,-8,-8,-8,-8,-8,-8,-8,-8,-8,-8,-8,-8,-8,-8,-8,-8,-8,-8,-8,-8,-8,-8,-8,-8,-8,-8,-8,-8,-8,-8,-8,-8,-8,-8,-8,-8,-8,-8,-8,-8,-8,-8,-8,-8,-8,-8,-8,-8,-8,-8,-8,-8,-8,-8,-8,-8,-8,-8,-8,-8,-8,-8,-8,-8,-8,-8,-8,-8,-8,-8,-8,-8,-8,-8,-8,-8,-8,-8,-8,-8,-8,-8,-8,-8,-8,-8,-8,-8,-8,-8,-8,-8,-8,-8,-8,-8,-8,-8,-8,-8,-8,-8,-8,-8,-8,-8,-8,-8,-8,-8,-8,-8,-8,-8,-8,-8,-8,-8,-8,-8,-8,-8,-8,-8,-8,-8,-8,-8,-8,-8,-8,-8,-8,-8,-8,-8,-8,-8,-8,-8,-8,-8,-8,-8,-8,-8,-8,-8,-8,-8,-8,-8,-8,-8,-8,-8,-8,-8,-8,-8,-8,-8,-8,-8,-8,-8,12680,12680,12680,12680,12680,12680,12680,12680,-8,-8,-8,-8,-8,12568,-8,-8,12504,-8,12504,12448,12448,12448,12448,12448,12504,12448,12504,12448,12504,12448,12448,12448,12448,12448,12448,12448,12448,12448,12392,12392,12392,12392,12392,12336,12336,12336,12336,12336,12336,12336,12336,12288,12288,12176,12176,12176,12176,12176,12176,12176,12176,12176,12120,12120,12120,12120,12120,12120,12120,12120,12120,12120,12072,12072,12072,12072,12072,12072,12016,12016,12016,12016,12016,12016,11968,11968,11968,11968,11968,11968,11968,11912,11968,11912,11912,11912,11864,11864,11864,11864,11864,11912,11912,11912,11912,11912,11912,11864,11864,11816,11816,11816,11760,11760,11760,11760,11760,11760,11760,11760,11760,11760,11760,11760,11760,11816,-8,-8,-8,-8,-8,-8,-8,-8,-8,-8,-8,-8,-8,-8,-8,-8,-8,-8,-8,-8,-8,-8,-8,-8,-8,-8,-8,-8,19608,19608,19608,19472,19472,19472,19472,19472,19608,19608,19608,19608,19608,19608,19472,19472,19472,19336,19336,19472,19608,19752,19608,19752,19752,19752,19752,19608,19608,19608,19752,19752,19752,19752,19752,19752,19896,19752,19752,19752,19752,-8,-8,19336,19336,19200,19472,19472,19472,19472,19472,19472,19336,19472,19472,19472,19472,19608,19608,19608,19608,19336,-8,-8,-8,-8,-8,-8,-8,19472,19472,19608,19752,19752,19752,19752,19752,19752,19752,19608,19752,19608,19608,19472,19472,19608,19608,19608,19472,19472,19608,19608,19752,19752,19752,19752,19896,19896,19896,-8,-8,-8,-8,-8,-8,-8,-8,-8,-8,-8,-8,-8,-8,-8,-8,19608,19608,19608,19608,19608,19608,19608,19752,19752,19752,19752,19896,19896,19896,20040,20040,20040,19608,19608,19608,19608,19608,19608,19608,19608,19752,19752,19752,19752,19752,19608,19608,19608,19752,19608,19608,19608,-8,-8,-8,-8,-8,-8,-8,-8,-8,19200,19336,19336,19336,19472,19472,19608,19608,19608,20040,19896,19896,19752,19752,19752,19752,19752,19752,19752,19896,19896,19752,19752,19752,19752,19752,19752,19752,19896,19752,19752,19608,19472,19472,19472,19472,19472,19472,19608,19608,19608,19608,19608,19608,19472,19336,19336,19472,19472,19472,19608,19608,19608,19608,19752,19336
-8,-8,-8,-8,-8,-8,-8,-8,-8,-8,-8,-8,-8,-8,-8,-8,-8,-8,-8,-8,-8,-8,-8,-8,-8,-8,-8,-8,-8,-8,-8,-8,-8,-8,-8,-8,-8,-8,-8,-8,-8,-8,-8,-8,-8,-8,-8,-8,-8,-8,-8,-8,-8,-8,-8,-8,-8,-8,-8,-8,-8,-8,-8,-8,-8,-8,-8,-8,-8,-8,-8,-8,-8,-8,-8,-8,-8,-8,-8,-8,-8,-8,-8,-8,-8,-8,-8,-8,-8,-8,-8,-8,-8,-8,-8,-8,-8,-8,-8,-8,-8,-8,-8,-8,-8,-8,-8,-8,-8,-8,-8,-8,-8,-8,-8,-8,-8,-8,-8,-8,-8,-8,-8,-8,-8,-8,-8,-8,-8,-8,-8,-8,-8,-8,-8,-8,-8,-8,-8,-8,-8,-8,-8,-8,-8,-8,-8,-8,-8,-8,-8,-8,-8,-8,-8,-8,-8,-8,-8,-8,-8,-8,-8,-8,-8,-8,-8,-8,-8,-8,-8,-8,-8,-8,-8,-8,-8,-8,-8,-8,-8,-8,-8,-8,-8,-8,-8,-8,-8,-8,-8,-8,-8,-8,-8,-8,-8,-8,-8,-8,-8,-8,-8,-8,-8,-8,-8,-8,-8,-8,-8,-8,-8,-8,-8,-8,-8,-8,-8,-8,-8,-8,-8,-8,-8,-8,-8,-8,-8,-8,-8,-8,-8,-8,-8,-8,-8,-8,-8,-8,-8,-8,-8,-8,-8,-8,-8,-8,-8,-8,-8,-8,12680,-8,-8,-8,-8,-8,-8,-8,-8,-8,-8,-8,12568,12448,12448,12448,12504,12504,12504,12504,12504,12504,12504,12448,12504,12448,12448,12448,12448,12448,12448,12448,12392,12392,12448,12392,12392,12392,12392,12336,12392,12336,12336,12336,12288,12288,12232,12176,12176,12176,12176,12176,12176,12176,12176,12176,12120,12120,12120,12120,12120,12120,12072,12072,12072,12072,12072,12072,12072,12072,12072,12072,12016,12016,12016,12016,12016,12016,11968,11968,11968,11968,11968,11968,11968,11912,11912,11912,11912,11864,11864,11816,11864,11864,11864,11864,11864,11864,11912,11912,11912,11864,11864,11864,11816,11816,11760,11760,11760,11760,11760,11760,11760,11760,11760,11760,11760,11760,11760,11816,-8,-8,-8,-8,-8,-8,-8,-8,-8,-8,-8,-8,-8,-8,-8,-8,-8,-8,-8,-8,-8,-8,-8,-8,-8,-8,-8,-8,19472,19472,19472,19472,19472,19472,19472,19472,19472,19472,19472,19472,19472,19472,19336,19336,19336,19336,19336,19472,19472,19608,19608,19472,19608,19608,19752,19608,19608,19608,19608,19608,19752,19752,19752,19752,19752,19608,19752,19752,19752,19200,19336,19336,19336,19200,19200,19336,19336,19336,19200,19200,19072,19336,19336,19336,19336,19336,19472,19472,19472,19336,-8,-8,-8,-8,-8,-8,19472,19472,19472,19608,19608,19752,19752,19752,19752,19752,19752,19608,19608,19608,19608,19472,19336,19472,19472,19472,19336,19472,19608,19608,19608,19608,19752,19752,19752,19752,-8,-8,-8,-8,-8,-8,-8,-8,-8,-8,-8,-8,-8,-8,-8,-8,-8,19608,19608,19472,19472,19472,19608,19608,19608,19608,19608,19608,19608,19752,19752,19752,19752,-8,19336,19336,19336,19336,19200,19608,19608,19608,19608,19608,19608,19608,19752,19608,19472,19608,19608,19608,19608,19752,-8,19752,-8,-8,-8,-8,-8,-8,19336,19200,19336,19200,19336,19336,19336,19336,19336,19336,19608,19608,19608,19608,19752,19752,19896,19896,19752,19752,19752,19752,19752,19752,19752,19608,19608,19608,19752,19752,19608,19608,19200,19200,19200,19336,19200,19336,19472,19472,19608,19472,19472,19472,19608,19472,19336,19336,19336,19336,19472,19472,19472,19472,19608,19200,19200
-8,-8,-8,-8,-8,-8,-8,-8,-8,-8,-8,-8,-8,-8,-8,-8,-8,-8,-8,-8,-8,-8,-8,-8,-8,-8,-8,-8,-8,-8,-8,-8,-8,-8,-8,-8,-8,-8,-8,-8,-8,-8,-8,-8,-8,-8,-8,-8,-8,-8,-8,-8,-8,-8,-8,-8,-8,-8,-8,-8,-8,-8,-8,-8,-8,-8,-8,-8,-8,-8,-8,-8,-8,-8,-8,-8,-8,-8,-8,-8,-8,-8,-8,-8,-8,-8,-8,-8,-8,-8,-8,-8,-8,-8,-8,-8,-8,-8,-8,-8,-8,-8,-8,-8,-8,-8,-8,-8,-8,-8,-8,-8,-8,-8,-8,-8,-8,-8,-8,-8,-8,-8,-8,-8,-8,-8,-8,-8,-8,-8,-8,-8,-8,-8,-8,-8,-8,-8,-8,-8,-8,-8,-8,-8,-8,-8,-8,-8,-8,-8,-8,-8,-8,-8,-8,-8,-8,-8,-8,-8,-8,-8,-8,-8,-8,-8,-8,-8,-8,-8,-8,-8,-8,-8,-8,-8,-8,-8,-8,-8,-8,-8,-8,-8,-8,-8,-8,-8,-8,-8,-8,-8,-8,-8,-8,-8,-8,-8,-8,-8,-8,-8,-8,-8,-8,-8,-8,-8,-8,-8,-8,-8,-8,-8,-8,-8,-8,-8,-8,-8,-8,-8,-8,-8,-8,-8,-8,-8,-8,-8,-8,-8,-8,-8,-8,-8,-8,-8,-8,-8,-8,-8,-8,-8,-8,-8,-8,-8,-8,-8,-8,-8,-8,-8,-8,-8,-8,-8,-8,-8,-8,-8,-8,-8,-8,-8,-8,12568,12568,12568,12568,12568,12568,12504,12568,12448,12448,12448,12448,12448,12448,12448,12448,12448,12448,12448,12448,12392,12392,12392,12392,12336,12392,12288,12288,12336,12288,12288,12232,12176,12176,12176,12176,12176,12120,12120,12120,12120,12120,12120,12120,12120,12120,12120,12120,12072,12072,12072,12072,12072,12072,12072,12072,12016,12016,12016,12016,12016,12016,11968,11968,11968,11968,11968,11968,11968,11968,11912,11912,11912,11912,11912,11864,11864,11864,11864,11864,11864,11912,11864,11912,11912,11912,11864,11864,11864,11816,11816,11760,11760,11760,11760,11760,11760,11760,11760,11760,11760,11760,11760,11760,11760,-8,-8,-8,-8,-8,-8,-8,-8,-8,-8,-8,-8,-8,-8,-8,-8,-8,-8,-8,-8,-8,-8,-8,-8,-8,-8,19336,19472,19336,19472,19472,19472,19472,19472,19472,19472,19472,19336,19336,19336,19336,19336,19200,19200,19336,19336,19200,19336,19336,19336,19472,19336,19472,19472,19472,19472,19472,19472,19472,19608,19608,19608,19608,19608,19608,19472,19472,19472,19200,19200,19200,19200,19200,19200,19200,19200,19200,19200,19200,18936,18936,19336,19336,19336,19336,19336,19336,19336,19336,19336,19336,19336,19336,19336,19472,19472,19472,19608,19608,19608,19752,19752,19752,19752,19752,19752,19608,19472,19472,19472,19336,19336,19336,19336,19336,19336,19336,19336,19336,19336,19472,19472,19608,19608,19608,19752,19608,-8,-8,-8,-8,-8,-8,-8,-8,-8,-8,-8,-8,-8,-8,-8,19472,19472,19472,19336,19472,19336,19472,19336,19336,19336,19472,19472,19472,19472,19608,-8,-8,-8,-8,19200,19200,19200,19072,19200,19472,19472,19472,19608,19608,19608,19608,19608,19472,19472,19608,19472,19472,19608,-8,-8,-8,-8,-8,-8,-8,-8,-8,19200,19200,19200,19200,19200,19336,19336,19336,19336,19472,19472,19472,19608,19608,19472,19608,19752,19752,19608,19472,19472,19608,19608,19608,19472,19472,19472,19608,19472,19472,19472,19072,18936,19072,19072,18936,19072,19072,19072,19336,19200,19200,19200,19472,19336,19200,19200,19200,19336,19200,19472,19472,19072,19072,18936,18936
-8,-8,-8,-8,-8,-8,-8,-8,-8,-8,-8,-8,-8,-8,-8,-8,-8,-8,-8,-8,-8,-8,-8,-8,-8,-8,-8,-8,-8,-8,-8,-8,-8,-8,-8,-8,-8,-8,-8,-8,-8,-8,-8,-8,-8,-8,-8,-8,-8,-8,-8,-8,-8,-8,-8,-8,-8,-8,-8,-8,-8,-8,-8,-8,-8,-8,-8,-8,-8,-8,-8,-8,-8,-8,-8,-8,-8,-8,-8,-8,-8,-8,-8,-8,-8,-8,-8,-8,-8,-8,-8,-8,-8,-8,-8,-8,-8,-8,-8,-8,-8,-8,-8,-8,-8,-8,-8,-8,-8,-8,-8,-8,-8,-8,-8,-8,-8,-8,-8,-8,-8,-8,-8,-8,-8,-8,-8,-8,-8,-8,-8,-8,-8,-8,-8,-8,-8,-8,-8,-8,-8,-8,-8,-8,-8,-8,-8,-8,-8,-8,-8,-8,-8,-8,-8,-8,-8,-8,-8,-8,-8,-8,-8,-8,-8,-8,-8,-8,-8,-8,-8,-8,-8,-8,-8,-8,-8,-8,-8,-8,-8,-8,-8,-8,-8,-8,-8,-8,-8,-8,-8,-8,-8,-8,-8,-8,-8,-8,-8,-8,-8,-8,-8,-8,-8,-8,-8,-8,-8,-8,-8,-8,-8,-8,-8,-8,-8,-8,-8,-8,-8,-8,-8,-8,-8,-8,-8,-8,-8,-8,-8,-8,-8,-8,-8,-8,-8,-8,-8,-8,-8,-8,-8,-8,-8,-8,-8,-8,-8,-8,-8,-8,-8,-8,-8,-8,-8,-8,-8,-8,-8,-8,-8,-8,-8,-8,-8,-8,-8,12568,12568,12568,12568,12568,12568,12448,12504,12448,12448,12448,12448,12448,12448,12448,12448,12448,12448,12392,12392,12392,12392,12336,12336,12288,12288,12288,12288,12288,12232,12176,12176,12176,12176,12120,12120,12120,12120,12120,12120,12120,12120,12120,12120,12120,12072,12120,12120,12072,12072,12072,12072,12072,12072,12016,12016,12016,12016,11968,11968,11968,11968,11968,11968,11968,11968,11968,11968,11912,11912,11912,11912,11912,11864,11864,11864,11864,11864,11864,11912,11864,11912,11912,11912,11864,11864,11864,11816,11816,11760,11760,11760,11760,11760,11760,11760,11760,11760,11760,11760,11760,11760,11760,11816,11968,11968,-8,-8,-8,-8,-8,-8,-8,-8,-8,-8,-8,-8,-8,-8,-8,-8,-8,-8,-8,-8,-8,-8,19336,19336,19472,19336,19336,19336,19472,19472,19472,19472,19472,19472,19336,19336,19200,19200,19200,19200,19200,19200,19200,19200,19200,19200,19336,19336,19336,19336,19336,19472,19336,19472,19336,19336,19472,19472,19472,19472,19472,19472,19336,19336,-8,19200,19200,19336,19200,19200,19336,19200,19200,19200,19072,18936,18936,18936,19072,19200,19336,19336,19336,19336,19336,19336,19336,19336,19200,19336,19336,19336,19336,19336,19336,19472,19472,19608,19608,19472,19608,-8,-8,19336,19336,19336,19200,19200,19200,19200,19200,19200,19200,19200,19200,19200,19336,19336,19336,19608,19608,19752,19752,19752,19752,-8,-8,-8,-8,-8,-8,-8,-8,-8,-8,-8,-8,-8,-8,19472,19608,19472,19336,19472,19336,19336,19336,19336,19336,19336,19472,19336,19472,-8,-8,-8,-8,-8,-8,19200,19072,19072,19200,19336,19336,19472,19472,19608,19472,19608,19472,19472,19336,19472,19472,19472,19608,-8,-8,-8,-8,-8,-8,-8,-8,-8,19336,19336,19200,19200,19200,19200,19200,19336,19336,19336,19336,19336,19472,19472,19336,19336,19472,19472,19472,19336,19472,19472,19472,19472,19336,19336,19336,19472,19336,19200,19200,18936,18808,18936,18936,18808,18936,18936,18936,19072,19072,19072,19200,19200,19200,19072,19072,19072,19200,19200,19200,19072,19072,19072,18680,18680
-8,-8,-8,-8,-8,-8,-8,-8,-8,-8,-8,-8,-8,-8,-8,-8,-8,-8,-8,-8,-8,-8,-8,-8,-8,-8,-8,-8,-8,-8,-8,-8,-8,-8,-8,-8,-8,-8,-8,-8,-8,-8,-8,-8,-8,-8,-8,-8,-8,-8,-8,-8,-8,-8,-8,-8,-8,-8,-8,-8,-8,-8,-8,-8,-8,-8,-8,-8,-8,-8,-8,-8,-8,-8,-8,-8,-8,-8,-8,-8,-8,-8,-8,-8,-8,-8,-8,-8,-8,-8,-8,-8,-8,-8,-8,-8,-8,-8,-8,-8,-8,-8,-8,-8,-8,-8,-8,-8,-8,-8,-8,-8,-8,-8,-8,-8,-8,-8,-8,-8,-8,-8,-8,-8,-8,-8,-8,-8,-8,-8,-8,-8,-8,-8,-8,-8,-8,-8,-8,-8,-8,-8,-8,-8,-8,-8,-8,-8,-8,-8,-8,-8,-8,-8,-8,-8,-8,-8,-8,-8,-8,-8,-8,-8,-8,-8,-8,-8,-8,-8,-8,-8,-8,-8,-8,-8,-8,-8,-8,-8,-8,-8,-8,-8,-8,-8,-8,-8,-8,-8,-8,-8,-8,-8,-8,-8,-8,-8,-8,-8,-8,-8,-8,-8,-8,-8,-8,-8,-8,-8,-8,-8,-8,-8,-8,-8,-8,-8,-8,-8,-8,-8,-8,-8,-8,-8,-8,-8,-8,-8,-8,-8,-8,-8,-8,-8,-8,-8,-8,-8,-8,-8,-8,-8,-8,-8,-8,-8,-8,-8,-8,-8,-8,-8,-8,-8,-8,-8,-8,-8,-8,-8,-8,-8,-8,-8,-8,-8,-8,-8,-8,-8,12568,12504,12504,12448,12448,12448,12448,12448,12392,12448,12448,12448,12392,12448,12392,12392,12392,12392,12392,12336,12336,12288,12288,12336,12336,12288,12232,12176,12176,12176,12176,12120,12120,12120,12120,12120,12120,12120,12120,12120,12120,12120,12072,12072,12072,12072,12072,12120,12072,12072,12072,12016,12016,12016,12016,11968,11968,11968,11968,11968,11968,11968,11968,11968,11968,11912,11912,11912,11912,11912,11864,11864,11864,11864,11864,11864,11912,11864,11912,11864,11864,11864,11864,11864,11816,11816,11760,11760,11760,11760,11760,11760,11760,11760,11760,11760,11760,11760,11760,11760,11864,11912,11968,12016,-8,-8,-8,-8,-8,-8,-8,-8,-8,-8,-8,-8,-8,-8,-8,-8,-8,-8,-8,-8,19200,19336,19336,19472,19472,19336,19472,19472,19608,19608,19472,19472,19472,19336,19336,19200,19200,19200,19200,19200,19200,19200,19200,19200,19200,19200,19200,19200,19336,19336,19336,19336,19336,19336,19336,19336,19336,19336,19336,19336,19336,19200,19200,19200,19200,19200,19200,19200,19200,19200,19200,19072,19072,19072,18936,18936,18936,19072,19200,19336,19336,19336,19336,19336,19336,19336,19200,19200,19200,19200,19200,19200,19336,19336,19336,19336,19472,19336,-8,-8,19336,-8,19336,19336,19336,19336,19200,19200,19200,19200,19200,19200,19200,19200,19200,19200,19200,19200,19336,-8,-8,19336,-8,-8,-8,-8,-8,-8,-8,-8,-8,-8,-8,-8,-8,-8,-8,-8,19472,19608,19472,19336,19472,19336,19336,19200,19200,19200,19200,19336,19072,19200,-8,-8,-8,-8,-8,-8,19072,-8,19072,19200,19200,19200,19336,19336,19472,19336,19472,19336,19336,19200,19200,19200,19200,19472,-8,-8,-8,-8,-8,-8,-8,-8,-8,19336,19336,19200,19200,19200,19200,19200,19336,19336,19336,19336,19336,19336,19336,19200,19200,19072,19072,19072,19200,19200,19200,19200,19200,19200,19200,19072,19072,19072,18936,18936,18680,18808,18808,18808,18808,18936,18936,18936,18936,18808,18936,19072,19072,19072,18936,18936,18936,18936,18936,18936,18936,18936,18680,18808,18808
-8,-8,-8,-8,-8,-8,-8,-8,-8,-8,-8,-8,-8,-8,-8,-8,-8,-8,-8,-8,-8,-8,-8,-8,-8,-8,-8,-8,-8,-8,-8,-8,-8,-8,-8,-8,-8,-8,-8,-8,-8,-8,-8,-8,-8,-8,-8,-8,-8,-8,-8,-8,-8,-8,-8,-8,-8,-8,-8,-8,-8,-8,-8,-8,-8,-8,-8,-8,-8,-8,-8,-8,-8,-8,-8,-8,-8,-8,-8,-8,-8,-8,-8,-8,-8,-8,-8,-8,-8,-8,-8,-8,-8,-8,-8,-8,-8,-8,-8,-8,-8,-8,-8,-8,-8,-8,-8,-8,-8,-8,-8,-8,-8,-8,-8,-8,-8,-8,-8,-8,-8,-8,-8,-8,-8,-8,-8,-8,-8,-8,-8,-8,-8,-8,-8,-8,-8,-8,-8,-8,-8,-8,-8,-8,-8,-8,-8,-8,-8,-8,-8,-8,-8,-8,-8,-8,-8,-8,-8,-8,-8,-8,-8,-8,-8,-8,-8,-8,-8,-8,-8,-8,-8,-8,-8,-8,-8,-8,-8,-8,-8,-8,-8,-8,-8,-8,-8,-8,-8,-8,-8,-8,-8,-8,-8,-8,-8,-8,-8,-8,-8,-8,-8,-8,-8,-8,-8,-8,-8,-8,-8,-8,-8,-8,-8,-8,-8,-8,-8,-8,-8,-8,-8,-8,-8,-8,-8,-8,-8,-8,-8,-8,-8,-8,-8,-8,-8,-8,-8,-8,-8,-8,-8,-8,-8,-8,-8,-8,-8,-8,-8,-8,-8,-8,-8,-8,-8,-8,-8,-8,-8,-8,-8,-8,-8,-8,-8,-8,-8,-8,-8,-8,-8,12504,12504,12448,12448,12448,12448,12448,12448,12448,12448,12448,12392,12448,12448,12392,12392,12392,12392,12392,12392,12288,12288,12336,12336,12288,12288,12176,12176,12176,12176,12176,12176,12120,12176,12120,12120,12120,12120,12120,12120,12120,12120,12120,12120,12072,12072,12120,12072,12072,12072,12072,12016,12016,12016,12016,11968,11968,11968,11968,11968,11968,11912,11912,11912,11912,11912,11912,11912,11912,11912,11912,11912,11912,11912,11912,11912,11864,11912,11864,11864,11864,11864,11816,11816,11760,11760,11760,11760,11760,11760,11760,11760,11760,11760,11760,11760,11760,11760,11816,11864,11912,11912,11968,-8,-8,-8,-8,-8,-8,-8,-8,-8,-8,-8,-8,-8,-8,-8,-8,-8,-8,-8,19336,19336,19336,19336,19336,19336,19336,19336,19472,19472,19608,19472,19472,19472,19336,19336,19200,19200,19072,19072,19072,19072,19200,19200,19200,19200,19200,19200,19200,19200,19200,19200,19200,19200,19200,19200,19200,19072,19072,19072,19200,19200,19072,19072,19200,19072,19072,19200,19200,19072,19200,19072,19072,19072,18936,18936,18808,18936,19072,19072,19200,19200,19200,19200,19200,19200,19200,19200,19072,19200,19200,19200,19200,19200,19200,19336,19200,19200,-8,-8,-8,-8,19336,19336,19336,19336,19336,19200,19200,19200,19200,19200,19336,19200,19200,19200,19200,19072,19072,-8,-8,-8,-8,-8,-8,-8,-8,-8,-8,18808,18808,18680,-8,-8,-8,-8,-8,-8,19336,19472,19472,19336,19200,19336,19200,19200,19072,19072,19072,19072,18936,18936,18936,18936,-8,-8,-8,-8,-8,-8,-8,19072,19072,19200,19200,19200,19336,19336,19200,19336,19200,19200,19200,19200,19072,19072,19336,18936,-8,-8,-8,-8,-8,-8,-8,19472,19336,19336,19200,19200,19200,19200,19200,19336,19336,19472,19472,19472,19472,-8,-8,19200,18936,19072,19072,19200,19200,19200,19072,19072,19072,19072,18936,18808,18808,18680,18560,18560,18680,18680,18680,18680,18680,18936,18936,18936,18936,18936,18072,18192,18192,18192,18808,18808,18808,-8,18680,18936,18936,18680,18680,18680
-8,-8,-8,-8,-8,-8,-8,-8,-8,-8,-8,-8,-8,-8,-8,-8,-8,-8,-8,-8,-8,-8,-8,-8,-8,-8,-8,-8,-8,-8,-8,-8,-8,-8,-8,-8,-8,-8,-8,-8,-8,-8,-8,-8,-8,-8,-8,-8,-8,-8,-8,-8,-8,-8,-8,-8,-8,-8,-8,-8,-8,-8,-8,-8,-8,-8,-8,-8,-8,-8,-8,-8,-8,-8,-8,-8,-8,-8,-8,-8,-8,-8,-8,-8,-8,-8,-8,-8,-8,-8,-8,-8,-8,-8,-8,-8,-8,-8,-8,-8,-8,-8,-8,-8,-8,-8,-8,-8,-8,-8,-8,-8,-8,-8,-8,-8,-8,-8,-8,-8,-8,-8,-8,-8,-8,-8,-8,-8,-8,-8,-8,-8,-8,-8,-8,-8,-8,-8,-8,-8,-8,-8,-8,-8,-8,-8,-8,-8,-8,-8,-8,-8,-8,-8,-8,-8,-8,-8,-8,-8,-8,-8,-8,-8,-8,-8,-8,-8,-8,-8,-8,-8,-8,-8,-8,-8,-8,-8,-8,-8,-8,-8,-8,-8,-8,-8,-8,-8,-8,-8,-8,-8,-8,-8,-8,-8,-8,-8,-8,-8,-8,-8,-8,-8,-8,-8,-8,-8,-8,-8,-8,-8,-8,-8,-8,-8,-8,-8,-8,-8,-8,-8,-8,-8,-8,-8,-8,-8,-8,-8,-8,-8,-8,-8,-8,-8,-8,-8,-8,-8,-8,-8,-8,-8,-8,-8,-8,-8,-8,-8,-8,-8,-8,-8,-8,-8,-8,-8,-8,-8,-8,-8,-8,-8,-8,-8,-8,-8,-8,-8,-8,-8,-8,-8,12504,12448,12504,12448,12448,12448,12448,12448,12448,12448,12392,12448,12448,12392,12392,12392,12392,12392,12392,12336,12288,12336,12336,12288,12288,12176,12176,12176,12176,12176,12176,12176,12176,12176,12176,12176,12176,12120,12120,12120,12120,12120,12120,12072,12072,12072,12072,12072,12072,12016,12016,12016,12016,12016,11968,11968,11968,11968,11968,11968,11968,11968,11968,11912,11912,11912,11912,11912,11912,11912,11912,11912,11912,11912,11912,11864,11912,11912,11864,11864,11864,11816,11816,11760,11760,11760,11760,11760,11760,11760,11760,11760,11760,11760,11760,11816,11816,11816,11864,11912,11912,11968,-8,-8,-8,-8,-8,-8,-8,-8,-8,-8,-8,-8,-8,-8,-8,-8,-8,-8,-8,-8,19336,19336,19336,19336,19336,19336,19336,19472,19472,19472,19472,19472,19336,19336,19336,19072,19072,18936,18936,18936,18936,19072,19072,19072,19200,19200,19200,19200,19200,19200,19200,19200,19072,19072,19072,18936,18936,18936,18936,19072,19072,19072,19072,19072,19072,19072,19072,19072,19072,19072,18936,18936,18936,18936,18808,18808,18808,18936,18936,19072,19072,19072,19072,19200,19200,19072,19072,19072,19200,19200,19200,19200,19200,19200,19200,19200,-8,-8,-8,-8,-8,-8,-8,19336,19336,19200,19200,19200,19200,19200,19200,19200,19200,19200,19200,19200,18936,18936,-8,-8,-8,-8,-8,-8,-8,18936,18808,18808,18808,18680,18680,-8,-8,-8,-8,-8,-8,-8,19336,19336,19200,19200,19200,19200,19072,19072,18936,18936,18936,18808,18808,18808,18808,-8,-8,-8,-8,-8,-8,19072,19072,19072,19072,19072,19200,19336,19336,19200,19336,19200,19200,19072,19072,19072,19072,19072,18808,18808,-8,19200,-8,-8,-8,19336,19336,19336,19336,19336,19200,19072,19200,19200,19336,19336,19336,19336,19336,-8,-8,-8,-8,-8,18808,18808,19072,19072,18936,18936,18936,18936,18936,18680,18680,18432,18432,18432,18432,18560,18560,18560,18560,18560,18680,18680,18680,-8,-8,-8,18072,18192,18192,18312,18312,18312,18680,18680,18680,18680,18680,18680,18680
-8,-8,-8,-8,-8,-8,-8,-8,-8,-8,-8,-8,-8,-8,-8,-8,-8,-8,-8,-8,-8,-8,-8,-8,-8,-8,-8,-8,-8,-8,-8,-8,-8,-8,-8,-8,-8,-8,-8,-8,-8,-8,-8,-8,-8,-8,-8,-8,-8,-8,-8,-8,-8,-8,-8,-8,-8,-8,-8,-8,-8,-8,-8,-8,-8,-8,-8,-8,-8,-8,-8,-8,-8,-8,-8,-8,-8,-8,-8,-8,-8,-8,-8,-8,-8,-8,-8,-8,-8,-8,-8,-8,-8,-8,-8,-8,-8,-8,-8,-8,-8,-8,-8,-8,-8,-8,-8,-8,-8,-8,-8,-8,-8,-8,-8,-8,-8,-8,-8,-8,-8,-8,-8,-8,-8,-8,-8,-8,-8,-8,-8,-8,-8,-8,-8,-8,-8,-8,-8,-8,-8,-8,-8,-8,-8,-8,-8,-8,-8,-8,-8,-8,-8,-8,-8,-8,-8,-8,-8,-8,-8,-8,-8,-8,-8,-8,-8,-8,-8,-8,-8,-8,-8,-8,-8,-8,-8,-8,-8,-8,-8,-8,-8,-8,-8,-8,-8,-8,-8,-8,-8,-8,-8,-8,-8,-8,-8,-8,-8,-8,-8,-8,-8,-8,-8,-8,-8,-8,-8,-8,-8,-8,-8,-8,-8,-8,-8,-8,-8,-8,-8,-8,-8,-8,-8,-8,-8,-8,-8,-8,-8,-8,-8,-8,-8,-8,-8,-8,-8,-8,-8,-8,-8,-8,-8,-8,-8,-8,-8,-8,-8,-8,-8,-8,-8,-8,-8,-8,-8,-8,-8,-8,-8,-8,-8,-8,-8,-8,-8,-8,-8,-8,-8,-8,-8,-8,12504,12448,12448,12448,12448,12448,12448,12448,12392,12448,12448,12392,12392,12392,12448,12392,12392,12336,12288,12336,12336,12288,12232,12176,12176,12176,12176,12176,12176,12120,12176,12176,12176,12176,12176,12176,12120,12120,12120,12120,12120,12072,12016,12072,12072,12072,12016,12016,12016,12016,12016,12016,11968,11968,11968,11968,11968,11968,11968,11968,11968,11968,11912,11912,11912,11912,11912,11912,11912,11912,11912,11912,11912,11912,11912,11864,11864,11816,11816,11816,11760,11760,11760,11760,11760,11760,11760,11760,11760,11760,11760,11760,11760,11760,11760,11816,11864,11912,11912,11968,-8,-8,-8,-8,-8,-8,-8,-8,-8,-8,-8,-8,-8,-8,-8,-8,-8,-8,19336,19336,19336,19336,19336,19200,19200,19200,19200,19336,19336,19472,19336,19336,19336,-8,-8,18936,18936,18808,18936,18936,18808,18808,18936,18936,19072,19200,19200,19200,19200,19200,19072,19072,18936,18936,18936,18936,18808,18808,18808,18808,18936,18936,18936,19072,18936,19072,19072,19072,18936,18936,18936,18936,18936,18936,18808,18808,18808,18808,18936,18936,18936,18936,19072,19072,19072,19072,19072,19072,19072,19072,19200,19072,19072,19072,19072,18680,18680,-8,-8,-8,-8,18808,18808,18808,19200,19200,19072,19072,19200,19200,19200,19200,19072,19072,19072,18808,18808,18808,-8,-8,-8,18560,-8,-8,-8,18808,18808,18808,18680,18680,18680,18680,-8,-8,-8,-8,18808,19072,19336,19200,19072,19072,19072,19072,19072,18936,18808,18808,18808,18808,18808,18808,18680,18808,-8,-8,-8,-8,-8,-8,18936,18936,18936,19072,19200,19200,19200,19200,19200,19200,19200,19072,19072,19072,19072,18936,18680,18680,18808,19072,-8,-8,-8,19336,19336,19200,19336,19200,19072,18936,19072,19072,19200,19200,19336,19336,-8,-8,-8,-8,-8,-8,-8,18680,18936,18936,18808,18680,18808,18808,18936,18432,18432,18432,18432,18432,18312,18560,18560,18560,18560,18432,18432,18432,18312,18312,18312,-8,18072,18072,18192,18192,18192,18192,-8,18680,18680,18808,18680,18680,18680
