9152,9152,9152,9152,9184,9152,9152,9184,9184,9184,9184,9184,9184,9184,9208,9240,9240,9240,9240,9240,9272,9272,9272,9240,9272,9272,9272,9272,9304,9304,9304,9304,9336,9336,9368,9400,9400,9432,9432,9432,-8,-8,-8,-8,-8,-8,-8,-8,-8,-8,-8,-8,-8,-8,-8,-8,-8,-8,-8,-8,-8,8448,8448,8448,8448,8480,8480,8504,8504,8504,8504,8528,8552,8552,8552,8552,8552,8552,8584,8584,8608,8608,8632,8632,8664,8664,8664,8688,8688,8688,8688,8688,8688,8688,8720,8744,8720,8744,8744,8744,8744,8744,8744,8688,8664,8664,8664,8632,8632,8632,8632,8664,8664,8664,8664,8664,8688,8688,9000,9000,9000,9000,9000,9032,9032,9032,9064,9088,9088,9120,9120,9120,9152,9152,9152,9152,9184,9208,9240,9240,9240,9272,9272,9272,9304,9336,9336,9368,9368,9368,9400,9400,9432,9432,9464,9464,9496,9496,9496,9528,9560,9600,9600,9632,9632,9632,9664,9664,9664,9696,9728,9728,9768,9768,9800,9832,9872,9872,9904,9904,9944,9944,9976,9976,10016,10048,10048,10048,10088,10088,10120,10160,10200,10240,10272,10312,10352,10392,10392,10432,10472,10512,10512,10552,10592,10632,10672,10712,10712,10752,10840,10880,10880,10928,10968,10928,10928,10928,10880,10880,10880,10880,10880,10880,10880,10880,10880,10880,10880,-8,-8,-8,-8,-8,-8,-8,-8,-8,-8,-8,-8,-8,-8,-8,-8,-8,-8,-8,-8,-8,-8,-8,-8,-8,-8,32760,32760,32760,32760,32760,32760,32760,32760,32760,32760,32760,32760,32760,32760,32760,32760,32760,32760,32760,32760,32760,32760,32760,32760,32760,32760,32760,32760,32760,32760,32760,32760,32760,32760,32760,32760,32760,32760,32760,32760,32760,32760,32760,32760,32760,32760,32760,32760,32760,32760,32760,32760,32760,32760,32760,32760,32760,32760,32760,32760,32760,32760,32760,32760,32760,32760,32760,32760,32760,32760,32760,32760,32760,32760,32760,32760,32760,32760,32760,32760,32760,32760,32760,32760,32760,32760,32760,32760,32760,32760,32760,32760,32760,32760,32760,32760,32760,32760,32760,32760,32760,32760,32760,32760,32760,32760,32760,32760,32760,32760,32760,32760,32760,32760,32760,32760,32760,32760,32760,32760,32760,32760,32760,32760,32760,32760,32760,32760,32760,32760,32760,32760,32760,-8,-8,-8,-8,-8,32760,32760,32760,32760,32760,32760,32760,32760,32760,-8,-8,-8,-8,-8,-8,-8,-8,-8,-8,-8,-8,-8,-8,-8,-8,-8,-8,-8,-8,-8,-8,-8,-8,-8,-8,-8,-8,-8,-8,-8,32760,32760,32760,32760,32760,32760,32760,32760,32760,32760,32760,32760,32760,32760,32760,32760,32760,32760,32760,32760,32760,32760,32760,32760,32760,32760,32760,32760,32760,32760,32760,32760,-8,-8,-8,-8,-8,-8,-8,-8,-8,-8,-8,-8,-8,-8,-8,-8,-8,-8,-8,-8,-8,-8,-8,-8,-8,-8,-8,-8,-8,-8,-8,-8,-8,-8,-8,-8,-8,-8,32760,32760,32760,32760,32760,32760,-8,-8,-8,-8,-8,-8,32760,32760,32760,32760,32760,32760,32760,32760,32760,32760,32760,32760,32760,32760,32760,32760,32760,32760,-8,-8,-8,-8,-8,-8,-8,-8,-8,-8,-8,-8,-8,-8,-8,-8,-8,-8,-8,-8,-8,-8,-8,-8,-8,-8,-8,-8,-8,-8,-8,-8,-8,-8,-8,-8,-8,-8,-8,-8,-8,-8,-8,-8,-8,-8,-8,-8,-8,-8,-8,-8,-8,-8,-8,-8,-8,-8,-8,-8,-8,-8,-8,-8,-8,-8,-8,-8,32760,32760,32760,32760,32760,-8,-8,-8,-8,-8,-8,-8,-8,-8,-8,-8,-8
9152,9152,9152,9152,9152,9152,9152,9152,9184,9184,9184,9184,9184,9184,9208,9208,9240,9240,9240,9272,9272,9272,9272,9272,9272,9272,9272,9304,9304,9304,9304,9336,9336,9368,9400,9432,9432,9464,9464,9464,-8,-8,-8,-8,-8,-8,-8,-8,-8,-8,-8,-8,-8,-8,-8,-8,-8,-8,-8,-8,8448,8448,8448,8448,8448,8480,8480,8504,8504,8504,8504,8528,8552,8552,8552,8584,8584,8584,8608,8608,8608,8632,8632,8632,8664,8664,8664,8688,8688,8688,8688,8688,8720,8720,8720,8744,8744,8744,8776,8744,8776,8744,8744,8688,8664,8664,8664,8632,8632,8632,8632,8664,8664,8664,8664,8664,8688,8976,8976,9000,9000,9000,9000,9032,9032,9064,9088,9088,9120,9120,9120,9152,9152,9152,9184,9184,9208,9240,9240,9240,9272,9272,9272,9304,9336,9336,9368,9368,9368,9400,9400,9400,9432,9432,9464,9464,9496,9496,9528,9560,9600,9600,9632,9632,9632,9664,9664,9664,9696,9696,9728,9768,9768,9800,9800,9832,9872,9872,9904,9944,9944,9976,9976,10016,10016,10048,10048,10088,10088,10120,10120,10160,10200,10240,10272,10312,10352,10392,10432,10432,10472,10512,10512,10552,10592,10632,10672,10712,10752,10800,10840,10880,10880,10928,10928,10928,10928,10928,10880,10880,10880,10880,10880,10880,10880,10880,10880,10880,10880,-8,-8,-8,-8,-8,-8,-8,-8,-8,-8,-8,-8,-8,-8,-8,-8,-8,-8,-8,-8,-8,-8,-8,-8,-8,-8,32760,32760,32760,32760,32760,32760,32760,32760,32760,32760,32760,32760,32760,32760,32760,32760,32760,32760,32760,32760,32760,32760,32760,32760,32760,32760,32760,32760,32760,32760,32760,32760,32760,32760,32760,32760,32760,32760,32760,32760,32760,32760,32760,32760,32760,32760,32760,32760,32760,32760,32760,32760,32760,32760,32760,32760,32760,32760,32760,32760,32760,32760,32760,32760,32760,32760,32760,32760,32760,32760,32760,32760,32760,32760,32760,32760,32760,32760,32760,32760,32760,32760,32760,32760,32760,32760,32760,32760,32760,32760,32760,32760,32760,32760,32760,32760,32760,32760,32760,32760,32760,32760,32760,32760,32760,32760,32760,32760,32760,32760,32760,32760,32760,32760,32760,32760,32760,32760,32760,32760,32760,32760,32760,32760,32760,32760,32760,32760,32760,32760,32760,32760,32760,32760,-8,-8,-8,-8,32760,32760,32760,32760,32760,32760,32760,32760,32760,32760,32760,-8,-8,-8,-8,-8,-8,-8,-8,-8,-8,-8,-8,-8,-8,-8,-8,-8,-8,-8,-8,-8,-8,-8,-8,-8,-8,-8,-8,32760,32760,32760,32760,32760,32760,32760,32760,32760,32760,32760,32760,32760,32760,32760,32760,32760,32760,32760,32760,32760,32760,32760,32760,32760,32760,32760,32760,32760,32760,32760,32760,32760,-8,-8,-8,-8,-8,-8,-8,-8,-8,-8,-8,-8,-8,-8,-8,-8,-8,-8,-8,-8,-8,-8,-8,-8,-8,-8,-8,-8,-8,-8,-8,-8,-8,-8,-8,-8,-8,-8,32760,32760,32760,32760,32760,32760,32760,-8,-8,-8,-8,-8,-8,32760,32760,32760,32760,32760,32760,32760,32760,32760,32760,32760,32760,32760,32760,32760,32760,-8,-8,-8,-8,-8,-8,-8,-8,-8,-8,-8,-8,-8,-8,-8,-8,-8,-8,-8,-8,-8,-8,-8,-8,-8,-8,-8,-8,-8,-8,-8,-8,-8,-8,-8,-8,-8,-8,-8,-8,-8,-8,-8,-8,-8,-8,-8,-8,-8,-8,-8,-8,-8,-8,-8,-8,-8,-8,-8,-8,-8,-8,-8,-8,-8,-8,-8,-8,32760,32760,32760,32760,32760,32760,-8,-8,-8,-8,-8,-8,-8,-8,-8,-8,-8,-8
9152,9152,9152,9152,9152,9152,9152,9152,9184,9184,9184,9184,9184,9184,9208,9240,9208,9240,9240,9272,9272,9272,9272,9272,9272,9272,9304,9304,9304,9336,9336,9336,9368,9368,9400,9432,9432,9464,-8,-8,-8,-8,-8,-8,-8,-8,-8,-8,-8,-8,-8,-8,-8,-8,-8,-8,-8,-8,8448,8448,8480,8480,8480,8448,8448,8480,8480,8504,8504,8504,8504,8528,8552,8552,8584,8584,8584,8584,8608,8632,8632,8632,8632,8664,8664,8664,8664,8688,8688,8688,8720,8720,8720,8720,8720,8744,8744,8744,8776,8744,8776,8744,8744,8688,8632,8632,8664,8632,8632,8632,8632,8664,8664,8688,8688,8688,8688,9000,9000,9000,9000,9032,9032,9032,9032,9064,9088,9088,9120,9120,9120,9152,9152,9152,9184,9184,9208,9240,9240,9272,9272,9272,9272,9304,9336,9336,9336,9368,9368,9368,9400,9400,9432,9432,9464,9496,9496,9496,9528,9560,9600,9600,9632,9632,9632,9664,9664,9664,9696,9728,9728,9768,9768,9800,9800,9832,9872,9904,9904,9944,9944,9976,9976,10016,10048,10048,10048,10088,10088,10120,10160,10200,10200,10240,10272,10312,10352,10392,10432,10432,10472,10512,10512,10552,10592,10632,10672,10712,10800,10840,10840,10880,10880,10928,10928,10928,10928,10880,10880,10880,10880,10880,10880,10880,10880,10880,10840,10840,-8,-8,-8,-8,-8,-8,-8,-8,-8,-8,-8,-8,-8,-8,-8,-8,-8,-8,-8,-8,-8,-8,-8,-8,-8,-8,-8,32760,32760,32760,32760,32760,32760,32760,32760,32760,32760,32760,32760,32760,32760,32760,32760,32760,32760,32760,32760,32760,32760,32760,32760,32760,32760,32760,32760,32760,32760,32760,32760,32760,32760,32760,32760,32760,32760,32760,32760,32760,32760,32760,32760,32760,32760,32760,32760,32760,32760,32760,32760,32760,32760,32760,32760,32760,32760,32760,32760,32760,32760,32760,32760,32760,32760,32760,32760,32760,32760,32760,32760,32760,32760,32760,32760,32760,32760,32760,32760,32760,32760,32760,32760,32760,32760,32760,32760,32760,32760,32760,32760,32760,32760,32760,32760,32760,32760,32760,32760,32760,32760,32760,32760,32760,32760,32760,32760,32760,32760,32760,32760,32760,32760,32760,32760,32760,32760,32760,32760,32760,32760,32760,32760,32760,32760,32760,32760,32760,32760,32760,32760,32760,32760,-8,-8,-8,-8,32760,32760,32760,32760,32760,32760,32760,32760,32760,32760,32760,-8,-8,-8,-8,-8,-8,-8,-8,-8,-8,-8,-8,-8,-8,-8,-8,-8,-8,-8,-8,-8,-8,-8,-8,-8,-8,-8,-8,32760,32760,32760,32760,32760,32760,32760,32760,32760,32760,32760,32760,32760,32760,32760,32760,32760,32760,32760,32760,32760,32760,32760,32760,32760,32760,32760,32760,32760,32760,32760,32760,32760,32760,-8,-8,-8,-8,-8,-8,-8,-8,-8,-8,-8,-8,-8,-8,-8,-8,-8,-8,-8,-8,-8,-8,-8,-8,-8,-8,-8,-8,-8,-8,-8,-8,-8,-8,-8,-8,-8,32760,32760,32760,32760,32760,32760,32760,32760,32760,32760,32760,32760,32760,32760,32760,32760,32760,32760,32760,32760,32760,32760,32760,32760,32760,32760,32760,32760,32760,-8,-8,-8,-8,-8,-8,-8,-8,-8,-8,-8,-8,-8,-8,-8,-8,-8,-8,-8,-8,-8,-8,-8,-8,-8,-8,-8,-8,-8,-8,-8,-8,-8,-8,-8,-8,-8,-8,-8,-8,-8,-8,-8,-8,-8,-8,-8,-8,-8,-8,-8,-8,-8,-8,-8,-8,-8,-8,-8,-8,-8,-8,-8,-8,-8,-8,-8,-8,-8,32760,32760,32760,32760,32760,-8,-8,-8,-8,-8,-8,-8,-8,-8,-8,-8,-8
9184,9184,9152,9152,9152,9152,9152,9152,9184,9152,9184,9184,9184,9208,9240,9240,9240,9240,9240,9272,9272,9272,9272,9272,9272,9304,9304,9304,9304,9336,9336,9336,9368,9368,9400,9432,9432,9432,-8,-8,-8,-8,-8,-8,-8,-8,-8,-8,-8,-8,-8,-8,-8,-8,-8,-8,-8,-8,8448,8480,8480,8480,8480,8480,8480,8480,8480,8504,8504,8504,8504,8528,8552,8552,8584,8584,8584,8584,8608,8632,8632,8632,8632,8664,8664,8664,8688,8688,8688,8688,8720,8720,8720,8720,8744,8744,8776,8776,8776,8776,8776,8744,8744,8688,8632,8632,8664,8664,8664,8632,8664,8664,8664,8688,8688,8688,8688,9000,9000,9000,9000,9032,9032,9032,9064,9064,9088,9088,9120,9120,9120,9152,9152,9152,9184,9184,9184,9240,9240,9240,9272,9272,9272,9304,9336,9336,9336,9368,9368,9368,9400,9400,9432,9432,9464,9496,9496,9528,9528,9560,9600,9632,9632,9632,9632,9664,9664,9696,9696,9728,9728,9768,9768,9800,9800,9872,9872,9904,9904,9944,9944,9976,10016,10016,10048,10048,10088,10088,10120,10160,10160,10200,10240,10240,10272,10312,10352,10392,10432,10432,10472,10512,10512,10552,10592,10672,10712,10752,10800,10840,10840,10880,10880,10880,10928,10928,10928,10928,10880,10880,10880,10880,10880,10880,10880,10880,10880,10840,-8,-8,-8,-8,-8,-8,-8,-8,-8,-8,-8,-8,-8,-8,-8,-8,-8,-8,-8,-8,-8,-8,-8,-8,-8,-8,-8,32760,32760,32760,32760,32760,32760,32760,32760,32760,32760,32760,32760,32760,32760,32760,32760,32760,32760,32760,32760,32760,32760,32760,32760,32760,32760,32760,32760,32760,32760,32760,32760,32760,32760,32760,32760,32760,32760,32760,32760,32760,32760,32760,32760,32760,32760,32760,32760,32760,32760,32760,32760,32760,32760,32760,32760,32760,32760,32760,32760,32760,32760,32760,32760,32760,32760,32760,32760,32760,32760,32760,32760,32760,32760,32760,32760,32760,32760,32760,32760,32760,32760,32760,32760,32760,32760,32760,32760,32760,32760,32760,32760,32760,32760,32760,32760,32760,32760,32760,32760,32760,32760,32760,32760,32760,32760,32760,32760,32760,32760,32760,32760,32760,32760,32760,32760,32760,32760,32760,32760,32760,32760,32760,32760,32760,32760,32760,32760,32760,32760,32760,32760,32760,32760,32760,-8,-8,-8,32760,32760,32760,32760,32760,32760,32760,32760,32760,32760,32760,-8,-8,-8,-8,-8,-8,-8,-8,-8,-8,-8,-8,-8,-8,-8,-8,-8,-8,-8,-8,-8,-8,-8,-8,-8,-8,-8,-8,-8,32760,32760,32760,32760,32760,32760,32760,32760,32760,32760,32760,32760,32760,32760,32760,32760,32760,32760,32760,32760,32760,32760,32760,32760,32760,32760,32760,32760,32760,32760,32760,32760,-8,-8,-8,-8,-8,-8,-8,-8,-8,-8,-8,-8,-8,-8,-8,-8,-8,-8,-8,-8,-8,-8,-8,-8,-8,-8,-8,-8,-8,-8,-8,-8,-8,-8,-8,-8,-8,-8,32760,32760,32760,32760,32760,32760,32760,32760,32760,32760,32760,32760,32760,32760,32760,32760,32760,32760,32760,32760,32760,32760,32760,32760,32760,32760,32760,32760,32760,-8,-8,-8,-8,-8,-8,-8,-8,-8,-8,-8,-8,-8,-8,-8,-8,-8,-8,-8,-8,-8,-8,-8,-8,-8,-8,-8,-8,-8,-8,-8,-8,-8,-8,-8,-8,-8,-8,-8,-8,-8,-8,-8,-8,-8,-8,-8,-8,-8,-8,-8,-8,-8,-8,-8,-8,-8,-8,-8,-8,-8,-8,-8,-8,-8,-8,-8,-8,-8,32760,32760,32760,32760,32760,32760,-8,-8,-8,-8,-8,-8,-8,-8,-8,-8,-8
9184,9184,9184,9152,9152,9152,9152,9152,9152,9152,9184,9184,9184,9208,9240,9240,9240,9240,9272,9272,9272,9272,9272,9272,9272,9304,9304,9304,9336,9336,9368,9368,9368,9368,9400,9432,9432,-8,-8,-8,-8,-8,-8,-8,-8,-8,-8,-8,-8,-8,-8,-8,-8,-8,-8,-8,-8,-8,8480,8480,8480,8480,8480,8480,8480,8480,8504,8504,8504,8480,8504,8528,8552,8552,8584,8584,8584,8584,8608,8632,8632,8632,8664,8664,8664,8688,8688,8688,8688,8688,8720,8720,8720,8744,8744,8744,8776,8776,8776,8776,8776,8744,8720,8688,8664,8664,8664,8664,8664,8664,8664,8664,8688,8688,8688,8688,8976,9000,9000,9000,9000,9032,9032,9032,9032,9064,9088,9088,9120,9120,9120,9152,9152,9152,9184,9184,9208,9240,9240,9240,9272,9272,9272,9272,9304,9304,9336,9336,9368,9368,9400,9400,9432,9464,9464,9496,9496,9528,9528,9600,9632,9632,9664,9664,9664,9664,9664,9696,9728,9728,9768,9768,9800,9800,9832,9872,9904,9904,9944,9944,9944,9976,10016,10048,10048,10048,10088,10088,10120,10160,10200,10200,10240,10240,10272,10312,10352,10392,10472,10472,10512,10512,10552,10552,10632,10672,10712,10752,10800,10840,10880,10880,10880,10928,10928,10928,10928,10928,10880,10880,10880,10880,10880,10880,10880,10880,10880,10880,-8,-8,-8,-8,-8,-8,-8,-8,-8,-8,-8,-8,-8,-8,-8,-8,-8,-8,-8,-8,-8,-8,-8,-8,-8,32760,32760,32760,32760,32760,32760,32760,32760,32760,32760,32760,32760,32760,32760,32760,32760,32760,32760,32760,32760,32760,32760,32760,32760,32760,32760,32760,32760,32760,32760,32760,32760,32760,32760,32760,32760,32760,32760,32760,32760,32760,32760,32760,32760,32760,32760,32760,32760,32760,32760,32760,32760,32760,32760,32760,32760,32760,32760,32760,32760,32760,32760,32760,32760,32760,32760,32760,32760,32760,32760,32760,32760,32760,32760,32760,32760,32760,32760,32760,32760,32760,32760,32760,32760,32760,32760,32760,32760,32760,32760,32760,32760,32760,32760,32760,32760,32760,32760,32760,32760,32760,32760,32760,32760,32760,32760,32760,32760,32760,32760,32760,32760,32760,32760,32760,32760,32760,32760,32760,32760,32760,32760,32760,32760,32760,32760,32760,32760,32760,32760,32760,32760,32760,32760,32760,32760,32760,-8,-8,-8,32760,32760,32760,32760,32760,32760,32760,32760,32760,32760,32760,-8,-8,32760,-8,-8,-8,-8,-8,-8,-8,-8,-8,-8,-8,-8,-8,-8,-8,-8,-8,-8,-8,-8,-8,-8,-8,-8,-8,-8,-8,32760,32760,32760,32760,32760,32760,32760,32760,32760,32760,32760,32760,32760,32760,32760,32760,32760,32760,32760,32760,32760,32760,32760,32760,32760,32760,32760,32760,32760,32760,32760,32760,-8,-8,-8,-8,-8,-8,-8,-8,-8,-8,-8,-8,-8,-8,-8,-8,-8,-8,-8,-8,-8,-8,-8,-8,-8,-8,-8,-8,-8,-8,-8,-8,-8,-8,-8,-8,-8,32760,32760,32760,32760,32760,32760,32760,32760,32760,32760,32760,32760,32760,32760,32760,32760,32760,32760,32760,32760,32760,32760,32760,32760,32760,32760,32760,32760,32760,-8,-8,-8,-8,-8,-8,-8,-8,-8,-8,-8,-8,-8,-8,-8,-8,-8,-8,-8,-8,-8,-8,-8,-8,-8,-8,-8,-8,-8,-8,-8,-8,-8,-8,-8,-8,-8,-8,-8,-8,-8,-8,-8,-8,-8,-8,-8,-8,-8,-8,-8,-8,-8,-8,-8,-8,-8,-8,-8,-8,-8,-8,-8,-8,-8,-8,-8,-8,-8,32760,32760,32760,32760,32760,32760,32760,-8,-8,-8,-8,-8,-8,-8,-8,-8,-8
9184,9184,9184,9184,9184,9152,9152,9152,9184,9184,9184,9184,9184,9208,9240,9240,9240,9240,9272,9272,9272,9272,9272,9272,9304,9304,9304,9304,9336,9336,9368,9368,9368,9368,9400,9432,-8,-8,-8,-8,-8,-8,-8,-8,-8,-8,-8,-8,-8,-8,-8,-8,-8,-8,-8,-8,-8,-8,8480,8480,8480,8480,8480,8480,8480,8480,8504,8504,8504,8504,8504,8528,8552,8552,8584,8584,8584,8584,8632,8632,8632,8632,8664,8664,8664,8688,8688,8688,8720,8720,8720,8720,8744,8744,8744,8776,8776,8776,8776,8776,8776,8744,8720,8688,8664,8664,8664,8664,8664,8632,8632,8664,8664,-8,8664,-8,8976,8976,9000,9000,9000,9032,9032,9032,9064,9064,9088,9120,9120,9120,9120,9152,9152,9152,9184,9208,9208,9240,9240,9272,9272,9272,9272,9272,9304,9304,9336,9336,9368,9368,9400,9432,9464,9464,9496,9496,9496,9528,9560,9600,9632,9632,9664,9664,9664,9664,9696,9696,9728,9768,9768,9800,9800,9832,9832,9872,9904,9904,9944,9944,9976,9976,10016,10048,10048,10048,10088,10120,10160,10160,10200,10200,10240,10240,10272,10352,10392,10432,10472,10472,10512,10552,10552,10592,10632,10672,10712,10752,10800,10840,10880,10880,10928,10928,10928,10928,10880,10880,10880,10880,10880,10880,10880,10880,10880,10880,10880,10880,-8,-8,-8,-8,-8,-8,-8,-8,-8,-8,-8,-8,-8,-8,-8,-8,-8,-8,-8,-8,-8,-8,-8,-8,-8,32760,32760,32760,32760,32760,32760,32760,32760,32760,32760,32760,32760,32760,32760,32760,32760,32760,32760,32760,32760,32760,32760,32760,32760,32760,32760,32760,32760,32760,32760,32760,32760,32760,32760,32760,32760,32760,32760,32760,32760,32760,32760,32760,32760,32760,32760,32760,32760,32760,32760,32760,32760,32760,32760,32760,32760,32760,32760,32760,32760,32760,32760,32760,32760,32760,32760,32760,32760,32760,32760,32760,32760,32760,32760,32760,32760,32760,32760,32760,32760,32760,32760,32760,32760,32760,32760,32760,32760,32760,32760,32760,32760,32760,32760,32760,32760,32760,32760,32760,32760,32760,32760,32760,32760,32760,32760,32760,32760,32760,32760,32760,32760,32760,32760,32760,32760,32760,32760,32760,32760,32760,32760,32760,32760,32760,32760,32760,32760,32760,32760,32760,32760,32760,32760,32760,32760,32760,32760,-8,32760,32760,32760,32760,32760,32760,32760,32760,32760,32760,32760,32760,32760,32760,32760,32760,32760,-8,-8,-8,-8,-8,-8,-8,-8,-8,-8,-8,-8,-8,-8,-8,-8,-8,-8,-8,-8,-8,-8,-8,-8,-8,32760,32760,32760,32760,32760,32760,32760,32760,32760,32760,32760,32760,32760,32760,32760,32760,32760,32760,32760,32760,32760,32760,32760,32760,32760,32760,32760,32760,32760,32760,32760,32760,-8,-8,-8,-8,-8,-8,-8,-8,-8,-8,-8,-8,-8,-8,-8,-8,-8,-8,-8,-8,-8,-8,-8,-8,-8,-8,-8,-8,-8,-8,-8,-8,-8,-8,-8,-8,32760,32760,32760,32760,32760,32760,32760,32760,32760,32760,32760,32760,32760,32760,32760,32760,32760,32760,32760,32760,32760,32760,32760,32760,32760,32760,32760,32760,32760,32760,-8,-8,-8,-8,-8,-8,-8,-8,-8,-8,-8,-8,-8,-8,-8,-8,-8,-8,-8,-8,-8,-8,-8,-8,-8,-8,-8,-8,-8,-8,-8,-8,-8,-8,-8,-8,-8,-8,-8,-8,-8,-8,-8,-8,-8,-8,-8,-8,-8,-8,-8,-8,-8,-8,-8,-8,-8,-8,-8,-8,-8,-8,-8,-8,-8,-8,-8,-8,-8,32760,32760,32760,32760,32760,32760,32760,32760,-8,-8,-8,-8,-8,-8,-8,-8,-8
9184,9184,9184,9152,9152,9152,9152,9152,9184,9184,9184,9184,9184,9208,9240,9272,9272,9272,9272,9272,9272,9272,9272,9272,9304,9304,9304,9304,9336,9368,9368,9400,9400,9400,9432,9432,-8,-8,-8,-8,-8,-8,-8,-8,-8,-8,-8,-8,-8,-8,-8,-8,-8,-8,-8,-8,-8,-8,8480,8480,8480,8480,8480,8480,8480,8480,8504,8504,8504,8504,8528,8552,8552,8584,8584,8584,8584,8584,8608,8632,8632,8632,8664,8664,8664,8688,8688,8688,8720,8720,8720,8720,8744,8744,8776,8776,8776,8776,8776,8776,8776,8744,8720,8664,8632,8632,8664,8632,8664,8632,8632,8664,8664,-8,-8,-8,-8,8976,9000,9000,9000,9032,9032,9032,9064,9088,9088,9120,9120,9120,9120,9152,9152,9184,9184,9208,9208,9240,9240,9240,9272,9272,9272,9272,9304,9304,9336,9336,9368,9368,9400,9432,9464,9464,9496,9496,9496,9528,9560,9600,9632,9632,9664,9664,9664,9664,9696,9728,9728,9768,9768,9800,9800,9832,9832,9872,9904,9904,9944,9944,9976,9976,10016,10048,10088,10088,10088,10160,10160,10200,10200,10240,10240,10272,10312,10352,10392,10432,10472,10472,10512,10552,10592,10592,10632,10672,10712,10752,10800,10840,10880,10928,10928,10928,10928,10928,10880,10880,10880,10880,10880,10880,10880,10880,10880,10880,10880,-8,-8,-8,-8,-8,-8,-8,-8,-8,-8,-8,-8,-8,-8,-8,-8,-8,-8,-8,-8,-8,-8,-8,-8,-8,-8,32760,32760,32760,32760,32760,32760,32760,32760,32760,32760,32760,32760,32760,32760,32760,32760,32760,32760,32760,32760,32760,32760,32760,32760,32760,32760,32760,32760,32760,32760,32760,32760,32760,32760,32760,32760,32760,32760,32760,32760,32760,32760,32760,32760,32760,32760,32760,32760,32760,32760,32760,32760,32760,32760,32760,32760,32760,32760,32760,32760,32760,32760,32760,32760,32760,32760,32760,32760,32760,32760,32760,32760,32760,32760,32760,32760,32760,32760,32760,32760,32760,32760,32760,32760,32760,32760,32760,32760,32760,32760,32760,32760,32760,32760,32760,32760,32760,32760,32760,32760,32760,32760,32760,32760,32760,32760,32760,32760,32760,32760,32760,32760,32760,32760,32760,32760,32760,32760,32760,32760,32760,32760,32760,32760,32760,32760,32760,32760,32760,32760,32760,32760,32760,32760,32760,32760,32760,32760,-8,-8,-8,32760,32760,32760,32760,32760,32760,32760,32760,32760,32760,32760,32760,32760,32760,32760,-8,-8,-8,-8,-8,-8,-8,-8,-8,-8,-8,-8,-8,-8,-8,-8,-8,-8,-8,-8,-8,-8,-8,-8,-8,32760,32760,32760,32760,32760,32760,32760,32760,32760,32760,32760,32760,32760,32760,32760,32760,32760,32760,32760,32760,32760,32760,32760,32760,32760,32760,32760,32760,32760,32760,32760,32760,-8,32760,32760,32760,-8,32760,32760,32760,32760,-8,-8,-8,-8,-8,-8,-8,-8,-8,-8,-8,-8,-8,-8,-8,-8,32760,32760,-8,-8,-8,-8,-8,-8,-8,-8,-8,32760,32760,32760,32760,32760,32760,32760,32760,32760,32760,32760,32760,32760,32760,32760,32760,32760,32760,32760,32760,32760,32760,32760,32760,32760,32760,32760,32760,32760,32760,-8,32760,32760,32760,32760,-8,-8,-8,-8,-8,-8,-8,-8,-8,-8,-8,-8,-8,-8,-8,-8,-8,-8,-8,-8,-8,-8,-8,-8,-8,-8,-8,-8,-8,-8,-8,-8,-8,-8,-8,-8,-8,-8,-8,-8,-8,-8,-8,-8,-8,-8,-8,-8,-8,-8,-8,-8,-8,-8,-8,-8,-8,-8,-8,-8,-8,-8,-8,-8,-8,32760,32760,32760,32760,32760,32760,32760,-8,-8,-8,-8,-8,-8,-8,-8,-8
9184,9152,9184,9152,9152,9184,9184,9184,9184,9184,9184,9208,9208,9208,9240,9272,9272,9272,9272,9304,9304,9272,9304,9304,9304,9304,9336,9336,9336,9368,9400,9400,9400,9400,9432,-8,-8,-8,-8,-8,-8,-8,-8,-8,-8,-8,-8,-8,-8,-8,-8,-8,-8,-8,-8,-8,-8,-8,8480,8480,8480,8480,8480,8480,8480,8504,8504,8504,8504,8528,8528,8552,8552,8584,8584,8584,8584,8584,8608,8608,8608,8632,8664,8664,8688,8688,8688,8720,8720,8720,8720,8744,8744,8776,8776,8776,8776,8776,8776,8776,8776,8744,8744,8688,8632,8632,8664,8664,8664,8664,8664,-8,-8,-8,-8,-8,-8,9000,9000,9000,9000,9032,9032,9032,9064,9064,9088,9120,9120,9120,9152,9152,9152,9184,9208,9208,9208,9240,9240,9272,9272,9272,9272,9272,9304,9304,9336,9368,9368,9368,9400,9432,9464,9496,9496,9528,9528,9560,9560,9600,9632,9632,9664,9664,9664,9696,9728,9728,9768,9768,9768,9800,9800,9800,9832,9872,9904,9904,9944,9944,9976,10016,10048,10048,10088,10088,10120,10160,10200,10200,10200,10240,10240,10272,10312,10352,10392,10432,10472,10472,10512,10552,10592,10632,10672,10672,10712,10752,10840,10840,10880,10928,10928,10928,10928,10928,10880,10880,10880,10880,10880,10880,10880,10880,10880,10880,10880,-8,-8,-8,-8,-8,-8,-8,-8,-8,-8,-8,-8,-8,-8,-8,-8,-8,-8,-8,-8,-8,-8,-8,-8,-8,32760,32760,32760,32760,32760,32760,32760,32760,32760,32760,32760,32760,32760,32760,32760,32760,32760,32760,32760,32760,32760,32760,32760,32760,32760,32760,32760,32760,32760,32760,32760,32760,32760,32760,32760,32760,32760,32760,32760,32760,32760,32760,32760,32760,32760,32760,32760,32760,32760,32760,32760,32760,32760,32760,32760,32760,32760,32760,32760,32760,32760,32760,32760,32760,32760,32760,32760,32760,32760,32760,32760,32760,32760,32760,32760,32760,32760,32760,32760,32760,32760,32760,32760,32760,32760,32760,32760,32760,32760,32760,32760,32760,32760,32760,32760,32760,32760,32760,32760,32760,32760,32760,32760,32760,32760,32760,32760,32760,32760,32760,32760,32760,32760,32760,32760,32760,32760,32760,32760,32760,32760,32760,32760,32760,32760,32760,32760,32760,32760,32760,32760,32760,32760,32760,32760,32760,32760,32760,32760,32760,-8,32760,32760,32760,32760,32760,32760,32760,32760,32760,32760,32760,32760,32760,32760,32760,32760,-8,-8,-8,-8,-8,-8,-8,-8,-8,-8,-8,-8,-8,-8,-8,-8,-8,-8,-8,-8,-8,-8,-8,-8,-8,32760,32760,32760,32760,-8,-8,-8,32760,32760,32760,32760,32760,32760,32760,32760,32760,32760,32760,32760,32760,32760,32760,32760,32760,32760,32760,32760,32760,32760,32760,32760,32760,32760,32760,32760,32760,32760,32760,32760,32760,32760,32760,32760,-8,-8,-8,-8,-8,-8,-8,-8,-8,32760,32760,32760,32760,32760,32760,32760,32760,32760,32760,32760,32760,32760,32760,32760,32760,32760,32760,32760,32760,32760,32760,32760,32760,32760,32760,32760,32760,32760,32760,32760,32760,32760,32760,32760,32760,32760,32760,32760,32760,32760,32760,32760,32760,32760,32760,32760,32760,32760,32760,32760,32760,32760,32760,32760,32760,-8,-8,-8,-8,-8,-8,-8,-8,-8,-8,-8,-8,-8,-8,-8,-8,32760,32760,32760,-8,-8,-8,-8,-8,-8,-8,-8,-8,-8,-8,-8,-8,-8,-8,-8,-8,-8,-8,-8,-8,-8,-8,-8,-8,-8,-8,-8,-8,-8,-8,-8,-8,-8,-8,-8,-8,-8,-8,-8,32760,32760,32760,32760,32760,32760,32760,32760,32760,32760,-8,-8,-8,-8,-8,-8,-8
9184,9184,9184,9184,9184,9184,9184,9184,9184,9184,9184,9208,9208,9208,9240,9272,9272,9272,9272,9304,9304,9304,9304,9304,9304,9336,9336,9336,9368,9400,9400,9400,9400,9432,9432,-8,-8,-8,-8,-8,-8,-8,-8,-8,-8,-8,-8,-8,-8,-8,-8,-8,-8,-8,-8,-8,-8,-8,8448,8480,8480,8480,8480,8480,8480,8480,8480,8480,8504,8504,8528,8552,8552,8552,8584,8584,8584,8584,8584,8608,8608,8632,8664,8664,8688,8688,8720,8720,8720,8720,8720,8744,8744,8776,8776,8776,8776,8776,8776,8776,8776,8744,8688,8688,8632,8632,8664,8664,8664,8664,-8,-8,-8,-8,-8,-8,-8,9000,9000,9000,9032,9032,9032,9032,9064,9088,9088,9120,9120,9152,9152,9152,9184,9184,9208,9208,9240,9240,9240,9240,9272,9272,9272,9272,9304,9336,9336,9368,9368,9400,9400,9432,9464,9496,9496,9528,9528,9560,9600,9632,9632,9632,9664,9664,9696,9728,9728,9768,9768,9768,9768,9800,9800,9832,9872,9904,9904,9944,9944,9944,9976,10016,10048,10048,10088,10088,10120,10160,10200,10200,10240,10240,10272,10312,10352,10392,10392,10432,10472,10472,10512,10552,10592,10632,10672,10712,10712,10800,10840,10880,10928,10928,10928,10928,10928,10928,10880,10880,10880,10880,10880,10880,10880,10880,10880,10880,-8,-8,-8,-8,-8,-8,-8,-8,-8,-8,-8,-8,-8,-8,-8,-8,-8,-8,-8,-8,-8,-8,-8,-8,-8,-8,32760,32760,32760,32760,32760,32760,32760,32760,32760,32760,32760,32760,32760,32760,32760,32760,32760,32760,32760,32760,32760,32760,32760,32760,32760,32760,32760,32760,32760,32760,32760,32760,32760,32760,32760,32760,32760,32760,32760,32760,32760,32760,32760,32760,32760,32760,32760,32760,32760,32760,32760,32760,32760,32760,32760,32760,32760,32760,32760,32760,32760,32760,32760,32760,32760,32760,32760,32760,32760,32760,32760,32760,32760,32760,32760,32760,32760,32760,32760,32760,32760,32760,32760,32760,32760,32760,32760,32760,32760,32760,32760,32760,32760,32760,32760,32760,32760,32760,32760,32760,32760,32760,32760,32760,32760,32760,32760,32760,32760,32760,32760,32760,32760,32760,32760,32760,32760,32760,32760,32760,32760,32760,32760,32760,32760,32760,32760,32760,32760,32760,32760,32760,32760,32760,32760,32760,32760,32760,32760,-8,-8,32760,32760,-8,32760,32760,32760,32760,32760,32760,32760,32760,32760,32760,32760,32760,32760,-8,-8,-8,-8,-8,-8,-8,-8,-8,-8,-8,-8,-8,-8,-8,-8,-8,-8,-8,-8,-8,-8,-8,-8,-8,-8,-8,-8,-8,-8,-8,-8,-8,32760,32760,32760,32760,32760,32760,32760,32760,32760,32760,32760,32760,32760,32760,32760,32760,32760,32760,32760,32760,32760,32760,32760,32760,32760,32760,32760,32760,32760,32760,32760,32760,32760,32760,32760,-8,-8,-8,-8,-8,-8,-8,32760,32760,32760,32760,32760,32760,32760,32760,32760,32760,32760,32760,32760,32760,32760,32760,32760,32760,32760,32760,32760,32760,32760,32760,32760,32760,32760,32760,32760,32760,32760,32760,32760,32760,32760,32760,32760,32760,32760,32760,32760,32760,32760,32760,32760,32760,32760,32760,32760,32760,32760,32760,32760,32760,32760,32760,32760,32760,-8,-8,-8,-8,-8,-8,-8,-8,32760,32760,32760,32760,32760,32760,32760,32760,32760,32760,-8,-8,-8,-8,-8,-8,-8,-8,-8,-8,-8,-8,-8,-8,-8,-8,-8,-8,-8,-8,-8,-8,-8,-8,-8,-8,-8,-8,-8,-8,-8,-8,-8,-8,-8,-8,-8,-8,-8,-8,-8,32760,32760,32760,32760,32760,32760,32760,32760,32760,32760,-8,-8,-8,-8,-8,-8,-8
9184,9184,9184,9184,9184,9184,9184,9184,9184,9208,9208,9208,9208,9240,9240,9272,9272,9272,9272,9304,9304,9304,9304,9304,9336,9336,9368,9368,9368,9400,9400,9400,9400,9432,9432,-8,-8,-8,-8,-8,-8,-8,-8,-8,-8,-8,-8,-8,-8,-8,-8,-8,-8,-8,-8,-8,-8,-8,8448,8480,8480,8480,8480,8480,8480,8504,8504,8480,8504,8504,8528,8552,8552,8552,8552,8584,8584,8584,8608,8608,8608,8632,8664,8688,8688,8688,8720,8720,8720,8720,8720,8720,8744,8744,8776,8776,8776,8776,8776,8776,8744,8720,8664,8608,8632,8632,8664,8664,8664,8664,-8,-8,-8,-8,-8,-8,9032,9032,9032,9032,9032,9032,9032,9064,9088,9088,9088,9120,9120,9152,9152,9184,9184,9208,9208,9208,9240,9240,9240,9240,9272,9272,9272,9272,9304,9304,9336,9368,9368,9400,9400,9432,9464,9496,9496,9528,9528,9560,9600,9632,9632,9632,9664,9664,9696,9728,9768,9768,9768,9800,9800,9800,9832,9832,9872,9904,9904,9904,9944,9944,9976,10016,10016,10048,10088,10120,10120,10160,10200,10200,10240,10240,10272,10312,10352,10392,10392,10432,10472,10512,10512,10552,10592,10632,10672,10672,10712,10800,10840,10880,10928,10968,10968,10928,10928,10928,10928,10880,10880,10880,10880,10880,10880,10928,10928,10968,10968,-8,-8,-8,-8,-8,-8,-8,-8,-8,-8,-8,-8,-8,-8,-8,-8,-8,-8,-8,-8,-8,-8,-8,-8,-8,32760,32760,32760,32760,32760,32760,32760,32760,32760,32760,32760,32760,32760,32760,32760,32760,32760,32760,32760,32760,32760,32760,32760,32760,32760,32760,32760,32760,32760,32760,32760,32760,32760,32760,32760,32760,32760,32760,32760,32760,32760,32760,32760,32760,32760,32760,32760,32760,32760,32760,32760,32760,32760,32760,32760,32760,32760,32760,32760,32760,32760,32760,32760,32760,32760,32760,32760,32760,32760,32760,32760,32760,32760,32760,32760,32760,32760,32760,32760,32760,32760,32760,32760,32760,32760,32760,32760,32760,32760,32760,32760,32760,32760,32760,32760,32760,32760,32760,32760,32760,32760,32760,32760,32760,32760,32760,32760,32760,32760,32760,32760,32760,32760,32760,32760,32760,32760,32760,32760,32760,32760,32760,32760,32760,32760,32760,32760,32760,32760,32760,32760,32760,32760,32760,32760,32760,32760,32760,32760,-8,-8,-8,32760,32760,32760,32760,32760,32760,32760,32760,32760,32760,32760,32760,32760,32760,-8,-8,-8,-8,-8,-8,-8,-8,-8,-8,-8,-8,-8,-8,-8,-8,-8,-8,-8,-8,-8,-8,-8,-8,-8,-8,-8,-8,-8,-8,-8,-8,-8,-8,-8,-8,-8,32760,32760,32760,32760,32760,32760,32760,32760,32760,32760,32760,32760,32760,32760,32760,32760,32760,32760,32760,32760,-8,32760,32760,32760,32760,32760,32760,32760,32760,32760,32760,32760,32760,32760,-8,-8,-8,-8,-8,32760,32760,32760,32760,32760,32760,32760,32760,32760,32760,32760,32760,32760,32760,32760,32760,32760,32760,32760,32760,32760,32760,32760,32760,32760,32760,32760,32760,32760,32760,32760,32760,32760,32760,32760,32760,32760,32760,32760,32760,32760,32760,32760,32760,32760,32760,32760,32760,32760,32760,32760,32760,32760,32760,32760,32760,32760,32760,32760,32760,-8,-8,-8,-8,-8,32760,32760,32760,32760,32760,32760,32760,32760,32760,32760,32760,-8,-8,-8,-8,-8,-8,-8,-8,-8,-8,-8,-8,-8,-8,-8,-8,-8,-8,-8,-8,-8,-8,-8,-8,-8,-8,-8,-8,-8,-8,-8,-8,-8,-8,-8,-8,-8,-8,-8,-8,32760,32760,32760,32760,32760,32760,32760,32760,32760,32760,32760,-8,-8,-8,-8,-8,-8,-8
9184,9184,9184,9184,9184,9208,9208,9184,9208,9208,9208,9240,9208,9240,9272,9272,9272,9272,9304,9304,9304,9304,9304,9336,9336,9368,9368,9368,9400,9400,9400,9400,9400,9432,-8,-8,-8,-8,-8,-8,-8,-8,-8,-8,-8,-8,-8,-8,-8,-8,-8,-8,-8,-8,-8,-8,-8,-8,8448,8480,8480,8480,8480,8480,8480,8504,8504,8504,8504,8528,8552,8552,8552,8552,8584,8584,8584,8584,8608,8608,8632,8632,8664,8688,8688,8720,8720,8720,8720,8720,8720,8720,8744,8744,8776,8776,8776,8776,8776,8776,8744,8688,8664,8632,8632,8664,8664,8664,8664,8688,8664,-8,-8,-8,-8,-8,9000,9032,9032,9032,9032,9032,9064,9064,9088,9088,9088,9120,9120,9152,9152,9184,9184,9208,9208,9240,9240,9240,9240,9272,9272,9272,9272,9304,9304,9336,9336,9368,9400,9400,9400,9432,9464,9496,9528,9528,9560,9560,9600,9632,9632,9664,9664,9664,9696,9728,9768,9768,9768,9800,9800,9800,9832,9872,9872,9904,9904,9944,9944,9944,9976,10016,10016,10048,10088,10120,10160,10200,10200,10240,10240,10240,10272,10312,10352,10392,10432,10432,10472,10512,10512,10552,10592,10632,10672,10672,10712,10800,10880,10928,10968,10968,10968,10968,10968,10928,10928,10880,10880,10880,10880,10880,10880,10928,10928,10968,11008,-8,-8,-8,-8,-8,-8,-8,-8,-8,-8,-8,-8,-8,-8,-8,-8,-8,-8,-8,-8,-8,-8,-8,-8,32760,32760,32760,32760,32760,32760,32760,32760,32760,32760,32760,32760,32760,32760,32760,32760,32760,32760,32760,32760,32760,32760,32760,32760,32760,32760,32760,32760,32760,32760,32760,32760,32760,32760,32760,32760,32760,32760,32760,32760,32760,32760,32760,32760,32760,32760,32760,32760,32760,32760,32760,32760,32760,32760,32760,32760,32760,32760,32760,32760,32760,32760,32760,32760,32760,32760,32760,32760,32760,32760,32760,32760,32760,32760,32760,32760,32760,32760,32760,32760,32760,32760,32760,32760,32760,32760,32760,32760,32760,32760,32760,32760,32760,32760,32760,32760,32760,32760,32760,32760,32760,32760,32760,32760,32760,32760,32760,32760,32760,32760,32760,32760,32760,32760,32760,32760,32760,32760,32760,32760,32760,32760,32760,32760,32760,32760,32760,32760,32760,32760,32760,32760,32760,32760,32760,32760,32760,32760,32760,32760,-8,-8,-8,32760,32760,32760,32760,32760,32760,32760,32760,32760,32760,32760,32760,32760,32760,-8,-8,-8,-8,-8,-8,-8,-8,-8,-8,-8,-8,-8,-8,-8,-8,-8,-8,-8,-8,-8,-8,-8,-8,-8,-8,-8,-8,-8,-8,-8,-8,-8,-8,-8,-8,-8,32760,32760,32760,32760,32760,32760,32760,32760,32760,32760,32760,32760,32760,32760,32760,32760,32760,32760,32760,32760,-8,32760,32760,32760,32760,32760,32760,32760,32760,32760,32760,32760,32760,32760,32760,-8,32760,-8,32760,32760,32760,32760,32760,32760,32760,32760,32760,32760,32760,32760,32760,32760,32760,32760,32760,32760,32760,32760,32760,32760,32760,32760,32760,32760,32760,32760,32760,32760,32760,32760,32760,32760,32760,32760,32760,32760,32760,32760,32760,32760,32760,32760,32760,32760,32760,32760,32760,32760,32760,32760,32760,32760,32760,32760,32760,32760,32760,32760,32760,-8,32760,32760,32760,-8,32760,32760,32760,32760,32760,32760,32760,32760,32760,32760,32760,-8,-8,-8,-8,-8,-8,-8,-8,-8,-8,-8,-8,-8,-8,-8,-8,-8,-8,-8,-8,-8,-8,-8,-8,-8,-8,-8,-8,-8,-8,-8,-8,-8,-8,-8,-8,-8,-8,-8,-8,32760,32760,32760,32760,32760,32760,32760,32760,32760,32760,32760,-8,-8,-8,-8,-8,-8,-8
9184,9184,9184,9184,9184,9208,9208,9208,9208,9240,9240,9240,9240,9240,9272,9272,9272,9272,9304,9336,9304,9304,9336,9336,9368,9368,9368,9400,9400,9400,9400,9432,9432,9432,-8,-8,-8,-8,-8,-8,-8,-8,-8,-8,-8,-8,-8,-8,-8,-8,-8,-8,-8,-8,-8,-8,-8,-8,8448,8480,8480,8480,8480,8480,8480,8504,8504,8504,8504,8528,8552,8552,8552,8552,8584,8584,8584,8608,8608,8608,8632,8632,8664,8688,8688,8688,8720,8720,8720,8720,8720,8720,8744,8744,8776,8776,8776,8776,8776,8776,8744,8688,8664,8632,8664,8664,8664,8664,8688,8688,8688,-8,-8,-8,-8,-8,9000,9000,9032,9032,9032,9032,9064,9064,9088,9088,9120,9120,9152,9152,9184,9184,9208,9208,9208,9240,9240,9240,9272,9272,9272,9272,9272,9304,9304,9336,9368,9368,9400,9400,9432,9464,9496,9496,9528,9528,9560,9560,9600,9632,9632,9664,9664,9664,9696,9728,9768,9768,9800,9800,9800,9832,9832,9832,9872,9904,9904,9944,9944,9944,9976,10016,10048,10048,10088,10120,10160,10160,10200,10200,10240,10240,10312,10312,10352,10392,10432,10432,10472,10512,10552,10592,10632,10632,10672,10712,10712,10752,10840,10928,10968,10968,10968,10968,10968,10928,10928,10880,10880,10880,10880,10880,10880,10928,10928,10968,11008,-8,-8,-8,-8,-8,-8,-8,-8,-8,-8,-8,-8,-8,-8,-8,-8,-8,-8,-8,-8,-8,-8,-8,-8,32760,32760,32760,32760,32760,32760,32760,32760,32760,32760,32760,32760,32760,32760,32760,32760,32760,32760,32760,32760,32760,32760,32760,32760,32760,32760,32760,32760,32760,32760,32760,32760,32760,32760,32760,32760,32760,32760,32760,32760,32760,32760,32760,32760,32760,32760,32760,32760,32760,32760,32760,32760,32760,32760,32760,32760,32760,32760,32760,32760,32760,32760,32760,32760,32760,32760,32760,32760,32760,32760,32760,32760,32760,32760,32760,32760,32760,32760,32760,32760,32760,32760,32760,32760,32760,32760,32760,32760,32760,32760,32760,32760,32760,32760,32760,32760,32760,32760,32760,32760,32760,32760,32760,32760,32760,32760,32760,32760,32760,32760,32760,32760,32760,32760,32760,32760,32760,32760,32760,32760,32760,32760,32760,32760,32760,32760,32760,32760,32760,32760,32760,32760,32760,32760,32760,32760,32760,32760,32760,32760,-8,-8,-8,32760,32760,32760,32760,32760,32760,32760,32760,32760,32760,32760,32760,32760,32760,32760,-8,-8,-8,-8,-8,-8,-8,-8,-8,-8,-8,-8,-8,-8,-8,-8,-8,-8,-8,-8,-8,-8,-8,-8,-8,-8,-8,-8,-8,-8,-8,-8,-8,-8,-8,-8,32760,32760,32760,32760,32760,32760,32760,32760,32760,32760,32760,32760,32760,32760,32760,32760,32760,32760,32760,-8,32760,32760,32760,32760,32760,32760,32760,32760,32760,32760,32760,32760,32760,32760,32760,32760,32760,32760,32760,32760,32760,32760,32760,32760,32760,32760,32760,32760,32760,32760,32760,32760,32760,32760,32760,32760,32760,32760,32760,32760,32760,32760,32760,32760,32760,32760,32760,32760,32760,32760,32760,32760,32760,32760,32760,32760,32760,32760,32760,32760,32760,32760,32760,32760,32760,32760,-8,32760,32760,32760,32760,32760,32760,32760,32760,32760,32760,32760,32760,32760,32760,32760,32760,32760,32760,32760,32760,32760,32760,32760,32760,32760,32760,32760,-8,-8,-8,-8,-8,-8,-8,-8,-8,-8,-8,-8,-8,-8,-8,-8,-8,-8,-8,-8,-8,-8,-8,-8,-8,-8,-8,-8,-8,-8,-8,-8,-8,-8,-8,-8,-8,-8,-8,32760,32760,32760,32760,32760,32760,32760,32760,32760,32760,32760,32760,-8,-8,-8,-8,-8,-8,-8,-8
9184,9184,9184,9184,9184,9208,9208,9208,9208,9240,9240,9240,9240,9272,9272,9272,9272,9272,9304,9304,9304,9304,9336,9336,9368,9368,9400,9400,9400,9400,9432,9432,9432,-8,-8,-8,-8,-8,-8,-8,-8,-8,-8,-8,-8,-8,-8,-8,-8,-8,-8,-8,-8,-8,-8,-8,-8,-8,8448,8448,8480,8480,8480,8480,8504,8504,8504,8504,8528,8528,8552,8552,8584,8584,8584,8584,8584,8608,8608,8608,8632,8632,8664,8688,8688,8720,8720,8720,8720,8720,8720,8720,8744,8744,8776,8776,8776,8776,8776,8776,8744,8664,8632,8632,8632,8664,8664,8664,8688,8688,8688,-8,-8,-8,-8,-8,9032,9032,9032,9032,9032,9032,9064,9064,9088,9120,9120,9120,9152,9184,9184,9184,9208,9208,9208,9240,9240,9240,9272,9272,9272,9304,9304,9304,9336,9368,9368,9368,9400,9400,9400,9432,9464,9496,9528,9528,9560,9560,9600,9632,9632,9632,9664,9664,9696,9728,9768,9768,9800,9800,9800,9832,9872,9872,9904,9904,9904,9944,9944,9944,9976,10016,10016,10048,10088,10120,10160,10160,10200,10240,10240,10272,10312,10352,10392,10392,10432,10432,10472,10512,10552,10592,10632,10632,10672,10712,10752,10800,10840,10880,10968,10968,10968,10968,10968,10928,10880,10880,10880,10880,10880,10880,10880,10928,10928,10968,10968,-8,-8,-8,-8,-8,-8,-8,-8,-8,-8,-8,-8,-8,-8,-8,-8,-8,-8,-8,-8,-8,-8,-8,-8,32760,32760,32760,32760,32760,32760,32760,32760,32760,32760,32760,32760,32760,32760,32760,32760,32760,32760,32760,32760,32760,32760,32760,32760,32760,32760,32760,32760,32760,32760,32760,32760,32760,32760,32760,32760,32760,32760,32760,32760,32760,32760,32760,32760,32760,32760,32760,32760,32760,32760,32760,32760,32760,32760,32760,32760,32760,32760,32760,32760,32760,32760,32760,32760,32760,32760,32760,32760,32760,32760,32760,32760,32760,32760,32760,32760,32760,32760,32760,32760,32760,32760,32760,32760,32760,32760,32760,32760,32760,32760,32760,32760,32760,32760,32760,32760,32760,32760,32760,32760,32760,32760,32760,32760,32760,32760,32760,32760,32760,32760,32760,32760,32760,32760,32760,32760,32760,32760,32760,32760,32760,32760,32760,32760,32760,32760,32760,32760,32760,32760,32760,32760,32760,32760,32760,32760,32760,32760,32760,32760,-8,-8,-8,32760,32760,32760,32760,32760,32760,32760,32760,32760,32760,32760,32760,32760,-8,-8,-8,-8,-8,-8,-8,-8,-8,-8,-8,-8,-8,-8,-8,-8,-8,-8,-8,-8,-8,-8,-8,-8,-8,-8,-8,-8,-8,-8,-8,-8,-8,-8,-8,-8,-8,32760,32760,32760,32760,32760,32760,32760,32760,32760,32760,32760,32760,32760,32760,32760,32760,32760,32760,32760,32760,-8,-8,32760,32760,32760,32760,32760,32760,32760,32760,32760,32760,32760,32760,32760,32760,32760,32760,32760,32760,32760,32760,32760,32760,32760,32760,32760,32760,32760,32760,32760,32760,32760,32760,32760,32760,32760,32760,32760,32760,32760,32760,32760,32760,32760,32760,32760,32760,32760,32760,32760,32760,32760,32760,32760,32760,32760,32760,32760,32760,32760,32760,32760,-8,-8,-8,-8,-8,-8,32760,32760,32760,32760,32760,32760,32760,32760,32760,32760,32760,32760,32760,32760,32760,-8,32760,32760,32760,-8,-8,-8,-8,-8,-8,-8,-8,-8,-8,-8,-8,-8,-8,-8,-8,-8,-8,-8,-8,-8,-8,-8,-8,-8,-8,-8,-8,-8,-8,-8,-8,-8,-8,-8,-8,-8,-8,-8,-8,-8,-8,-8,-8,-8,-8,32760,32760,32760,32760,32760,32760,32760,32760,-8,-8,32760,32760,-8,-8,-8,-8,-8,-8,-8,-8
9184,9184,9184,9184,9184,9184,9208,9208,9208,9240,9240,9240,9240,9272,9272,9272,9272,9304,9304,9336,9304,9304,9336,9368,9368,9400,9400,9400,9400,9432,9432,9432,9432,-8,-8,-8,-8,-8,-8,-8,-8,-8,-8,-8,-8,-8,-8,-8,-8,-8,-8,-8,-8,-8,-8,-8,-8,-8,-8,8480,8480,8504,8504,8480,8504,8504,8504,8528,8528,8552,8552,8552,8584,8584,8584,8584,8584,8608,8608,8632,8632,8664,8664,8688,8688,8688,8688,8720,8720,8720,8720,8720,8744,8744,8776,8776,8776,8776,8776,8776,8720,8664,8632,8632,8664,8664,8664,8688,8688,8688,8720,8744,-8,-8,-8,9000,9000,9000,9032,9032,9032,9032,9064,9088,9088,9120,9120,9120,9152,9184,9184,9184,9208,9208,9240,9240,9240,9240,9272,9272,9304,9304,9304,9336,9336,9368,9368,9400,9400,9400,9432,9464,9496,9496,9528,9528,9560,9600,9600,9632,9632,9664,9664,9664,9696,9728,9768,9768,9800,9800,9800,9832,9832,9872,9904,9904,9904,9944,9944,9976,10016,10016,10048,10048,10088,10120,10160,10200,10240,10240,10272,10312,10352,10352,10392,10392,10432,10432,10472,10512,10552,10552,10592,10632,10672,10712,10752,10800,10840,10880,10928,10968,10968,10928,10928,10880,10928,10880,10880,10880,10880,10880,10880,10928,10928,10968,10968,-8,-8,-8,-8,-8,-8,-8,-8,-8,-8,-8,-8,-8,-8,-8,-8,-8,-8,-8,-8,-8,-8,-8,-8,-8,32760,32760,32760,32760,32760,32760,32760,32760,32760,32760,32760,32760,32760,32760,32760,32760,32760,32760,32760,32760,32760,32760,32760,32760,32760,32760,32760,32760,32760,32760,32760,32760,32760,32760,32760,32760,32760,32760,32760,32760,32760,32760,32760,32760,32760,32760,32760,32760,32760,32760,32760,32760,32760,32760,32760,32760,32760,32760,32760,32760,32760,32760,32760,32760,32760,32760,32760,32760,32760,32760,32760,32760,32760,32760,32760,32760,32760,32760,32760,32760,32760,32760,32760,32760,32760,32760,32760,32760,32760,32760,32760,32760,32760,32760,32760,32760,32760,32760,32760,32760,32760,32760,32760,32760,32760,32760,32760,32760,32760,32760,32760,32760,32760,32760,32760,32760,32760,32760,32760,32760,32760,32760,32760,32760,32760,32760,32760,32760,32760,32760,32760,32760,32760,32760,32760,32760,32760,32760,32760,-8,-8,-8,32760,32760,32760,32760,32760,32760,32760,32760,32760,32760,32760,32760,-8,-8,-8,-8,-8,-8,-8,-8,-8,-8,-8,-8,-8,-8,-8,-8,-8,-8,-8,-8,-8,-8,-8,-8,-8,-8,-8,-8,-8,-8,-8,-8,-8,-8,-8,-8,-8,32760,32760,32760,32760,32760,32760,32760,32760,32760,32760,32760,32760,32760,32760,32760,32760,32760,32760,32760,32760,32760,-8,-8,32760,32760,32760,32760,32760,32760,32760,32760,32760,32760,32760,32760,32760,32760,32760,32760,32760,32760,32760,32760,32760,32760,32760,32760,32760,32760,32760,32760,32760,32760,32760,32760,32760,32760,32760,32760,32760,32760,32760,32760,32760,32760,32760,32760,32760,32760,32760,32760,32760,32760,32760,-8,32760,32760,32760,32760,32760,32760,32760,32760,-8,-8,-8,-8,-8,-8,-8,-8,32760,-8,-8,-8,-8,-8,-8,-8,-8,32760,-8,32760,32760,32760,-8,-8,-8,-8,-8,-8,-8,-8,-8,-8,-8,-8,-8,-8,-8,-8,-8,-8,-8,-8,-8,-8,-8,-8,-8,-8,-8,-8,-8,-8,-8,-8,-8,-8,-8,-8,-8,-8,-8,-8,-8,-8,-8,-8,-8,-8,-8,-8,-8,-8,32760,32760,32760,32760,32760,32760,32760,-8,-8,-8,-8,32760,-8,-8,-8,-8,-8,-8,-8,-8
9184,9184,9184,9184,9184,9184,9208,9208,9208,9240,9240,9240,9240,9272,9272,9272,9272,9304,9304,9336,9336,9336,9368,9368,9400,9400,9400,9400,9400,9432,9432,9432,-8,-8,-8,-8,-8,-8,-8,-8,-8,-8,-8,-8,-8,-8,-8,-8,-8,-8,-8,-8,-8,-8,-8,-8,-8,-8,-8,-8,-8,8504,8528,8504,8504,8528,8528,8528,8552,8552,8552,8552,8584,8584,8584,8584,8584,8608,8608,8608,8632,8632,8664,8688,8688,8720,8720,8720,8720,8720,8720,8720,8744,8744,8776,8776,8776,8776,8776,8744,8688,8664,8632,8632,8664,8664,8664,8688,8688,8688,8720,8744,8744,9000,9000,9000,9000,9032,9032,9032,9032,9064,9064,9088,9120,9120,9120,9152,9152,9184,9184,9184,9208,9208,9240,9240,9272,9272,9272,9304,9304,9304,9336,9336,9336,9368,9368,9400,9400,9400,9432,9464,9496,9496,9528,9528,9560,9560,9600,9632,9632,9664,9664,9696,9696,9728,9768,9768,9800,9800,9800,9832,9872,9872,9904,9944,9944,9944,9976,9976,10016,10048,10048,10048,10088,10120,10160,10200,10240,10272,10272,10312,10352,10352,10392,10392,10432,10472,10512,10512,10552,10552,10592,10632,10672,10712,10752,10800,10880,10880,10928,10928,10928,10928,10928,10880,10928,10880,10880,10880,10928,10928,10880,10928,10928,10968,10968,-8,-8,-8,-8,-8,-8,-8,-8,-8,-8,-8,-8,-8,-8,-8,-8,-8,-8,-8,-8,-8,-8,-8,-8,-8,32760,32760,32760,32760,32760,32760,32760,32760,32760,32760,32760,32760,32760,32760,32760,32760,32760,32760,32760,32760,32760,32760,32760,32760,32760,32760,32760,32760,32760,32760,32760,32760,32760,32760,32760,32760,32760,32760,32760,32760,32760,32760,32760,32760,32760,32760,32760,32760,32760,32760,32760,32760,32760,32760,32760,32760,32760,32760,32760,32760,32760,32760,32760,32760,32760,32760,32760,32760,32760,32760,32760,32760,32760,32760,32760,32760,32760,32760,32760,32760,32760,32760,32760,32760,32760,32760,32760,32760,32760,32760,32760,32760,32760,32760,32760,32760,32760,32760,32760,32760,32760,32760,32760,32760,32760,32760,32760,32760,32760,32760,32760,32760,32760,32760,32760,32760,32760,32760,32760,32760,32760,32760,32760,32760,32760,32760,32760,32760,32760,32760,32760,32760,32760,32760,32760,32760,32760,32760,32760,-8,-8,-8,32760,32760,32760,32760,32760,32760,32760,32760,32760,32760,32760,32760,-8,-8,-8,-8,-8,-8,-8,-8,-8,-8,-8,-8,-8,-8,-8,-8,-8,-8,-8,-8,-8,-8,-8,-8,-8,-8,-8,-8,-8,-8,-8,-8,-8,-8,-8,-8,-8,32760,32760,32760,32760,32760,32760,32760,32760,32760,32760,32760,32760,32760,32760,32760,32760,32760,32760,32760,32760,-8,-8,-8,-8,32760,32760,32760,32760,32760,32760,32760,32760,32760,32760,32760,32760,32760,32760,32760,32760,32760,32760,32760,32760,32760,32760,32760,32760,32760,32760,32760,32760,32760,32760,32760,32760,32760,32760,32760,32760,32760,32760,32760,32760,32760,32760,32760,32760,32760,32760,32760,32760,32760,-8,-8,32760,32760,32760,32760,32760,32760,32760,32760,-8,-8,-8,-8,-8,-8,-8,-8,-8,-8,-8,-8,-8,-8,-8,-8,-8,-8,-8,-8,-8,-8,-8,-8,-8,-8,-8,-8,-8,-8,-8,-8,-8,-8,-8,-8,-8,-8,-8,-8,-8,-8,-8,-8,-8,-8,-8,-8,-8,-8,-8,-8,-8,-8,-8,-8,-8,-8,-8,-8,-8,-8,-8,-8,-8,-8,-8,-8,-8,-8,-8,-8,32760,32760,32760,32760,32760,-8,-8,-8,-8,-8,-8,-8,-8,-8,-8,-8,-8,-8,-8,-8
9184,9184,9184,9184,9208,9208,9208,9240,9240,9240,9240,9272,9240,9272,9272,9272,9272,9304,9304,9336,9336,9336,9368,9368,9400,9400,9400,9400,9400,9432,-8,-8,-8,-8,-8,-8,-8,-8,-8,-8,-8,-8,-8,-8,-8,-8,-8,-8,-8,-8,-8,-8,-8,-8,-8,-8,-8,-8,-8,-8,-8,-8,8528,8504,8504,8528,8528,8528,8552,8552,8552,8552,8584,8584,8584,8584,8584,8608,8632,8632,8632,8664,8664,8688,8688,8720,8720,8720,8720,8720,8720,8744,8744,8744,8776,8776,8776,8776,8776,8744,8664,8632,8632,8664,8664,8664,8664,8688,8688,8688,8720,8744,8744,9000,9000,9000,9000,9032,9032,9032,9032,9064,9064,9088,9120,9120,9120,9152,9152,9184,9184,9184,9184,9208,9208,9240,9272,9272,9272,9304,9304,9336,9336,9368,9368,9368,9400,9400,9400,9432,9432,9464,9496,9496,9528,9528,9528,9560,9600,9632,9632,9664,9664,9696,9696,9728,9768,9768,9800,9800,9800,9832,9872,9904,9904,9944,9944,9944,9976,9976,10016,10048,10048,10088,10088,10120,10200,10200,10240,10272,10272,10312,10352,10352,10392,10432,10472,10472,10512,10552,10552,10592,10632,10632,10672,10712,10752,10800,10840,10880,10880,10928,10928,10928,10928,10880,10928,10880,10880,10880,10928,10928,10928,10928,10928,10968,10968,-8,-8,-8,-8,-8,-8,-8,-8,-8,-8,-8,-8,-8,-8,-8,-8,-8,-8,-8,-8,-8,-8,-8,-8,-8,32760,32760,32760,32760,32760,32760,32760,32760,32760,32760,32760,32760,32760,32760,32760,32760,32760,32760,32760,32760,32760,32760,32760,32760,32760,32760,32760,32760,32760,32760,32760,32760,32760,32760,32760,32760,32760,32760,32760,32760,32760,32760,32760,32760,32760,32760,32760,32760,32760,32760,32760,32760,32760,32760,32760,32760,32760,32760,32760,32760,32760,32760,32760,32760,32760,32760,32760,32760,32760,32760,32760,32760,32760,32760,32760,32760,32760,32760,32760,32760,32760,32760,32760,32760,32760,32760,32760,32760,32760,32760,32760,32760,32760,32760,32760,32760,32760,32760,32760,32760,32760,32760,32760,32760,32760,32760,32760,32760,32760,32760,32760,32760,32760,32760,32760,32760,32760,32760,32760,32760,32760,32760,32760,32760,32760,32760,32760,32760,32760,32760,32760,32760,32760,32760,32760,32760,32760,32760,32760,-8,-8,-8,32760,32760,32760,32760,32760,32760,32760,32760,32760,32760,32760,32760,-8,-8,-8,-8,-8,-8,-8,-8,-8,-8,-8,-8,-8,-8,-8,-8,-8,-8,-8,-8,-8,-8,-8,-8,-8,-8,-8,-8,-8,-8,-8,-8,-8,-8,-8,-8,32760,32760,32760,32760,32760,32760,32760,32760,32760,32760,32760,32760,32760,32760,32760,32760,32760,32760,-8,-8,-8,-8,-8,-8,-8,-8,32760,32760,32760,32760,32760,32760,32760,32760,32760,32760,32760,32760,32760,32760,32760,32760,32760,32760,32760,32760,32760,32760,32760,32760,32760,32760,32760,32760,32760,32760,32760,32760,32760,32760,32760,32760,32760,32760,32760,32760,32760,32760,32760,32760,32760,32760,32760,32760,32760,32760,32760,32760,32760,32760,32760,32760,32760,32760,-8,-8,-8,-8,-8,-8,-8,-8,-8,-8,-8,-8,-8,-8,-8,-8,-8,-8,-8,-8,-8,-8,-8,-8,-8,-8,-8,-8,-8,-8,-8,-8,-8,-8,-8,-8,-8,-8,-8,-8,-8,-8,-8,-8,-8,-8,-8,-8,-8,-8,-8,-8,-8,-8,-8,-8,-8,-8,-8,-8,-8,-8,-8,-8,-8,-8,-8,-8,-8,-8,-8,-8,32760,32760,32760,-8,32760,32760,-8,-8,-8,-8,-8,-8,-8,-8,-8,-8,-8,-8,-8,-8
9184,9184,9184,9184,9208,9208,9240,9240,9240,9272,9272,9272,9272,9272,9272,9272,9304,9304,9304,9336,9336,9336,9368,9400,9400,9432,9400,9432,9400,9432,-8,-8,-8,-8,-8,-8,-8,-8,-8,-8,-8,-8,-8,-8,-8,-8,-8,-8,-8,-8,-8,-8,-8,-8,-8,-8,-8,-8,-8,-8,-8,-8,-8,8528,8528,8528,8528,8528,8552,8552,8552,8552,8584,8584,8584,8584,8608,8608,8632,8632,8632,8632,8664,8664,8688,8688,8688,8720,8720,8720,8720,8744,8776,8776,8800,8800,8776,8776,8776,8744,8664,8632,8632,8664,8664,8664,8664,8688,8688,8688,8720,8776,8776,9000,9000,9000,9000,9032,9032,9032,9032,9064,9064,9088,9120,9120,9152,9152,9152,9184,9184,9184,9184,9208,9208,9240,9272,9272,9304,9336,9336,9368,9368,9368,9368,9400,9400,9400,9400,9432,9464,9496,9496,9496,9528,9528,9528,9560,9600,9632,9632,9664,9664,9696,9696,9728,9768,9768,9800,9800,9832,9832,9872,9904,9904,9944,9944,9944,9976,9976,10016,10048,10048,10088,10088,10160,10200,10200,10240,10272,10272,10312,10352,10392,10392,10432,10472,10512,10512,10552,10552,10592,10632,10632,10672,10672,10712,10752,10840,10840,10840,10880,10880,10880,10880,10880,10880,10880,10880,10928,10928,10928,10928,10928,10880,10928,-8,-8,-8,-8,-8,-8,-8,-8,-8,-8,-8,-8,-8,-8,-8,-8,-8,-8,-8,-8,-8,-8,-8,-8,-8,-8,32760,32760,32760,32760,32760,32760,32760,32760,32760,32760,32760,32760,32760,32760,32760,32760,32760,32760,32760,32760,32760,32760,32760,32760,32760,32760,32760,32760,32760,32760,32760,32760,32760,32760,32760,32760,32760,32760,32760,32760,32760,32760,32760,32760,32760,32760,32760,32760,32760,32760,32760,32760,32760,32760,32760,32760,32760,32760,32760,32760,32760,32760,32760,32760,32760,32760,32760,32760,32760,32760,32760,32760,32760,32760,32760,32760,32760,32760,32760,32760,32760,32760,32760,32760,32760,32760,32760,32760,32760,32760,32760,32760,32760,32760,32760,32760,32760,32760,32760,32760,32760,32760,32760,32760,32760,32760,32760,32760,32760,32760,32760,32760,32760,32760,32760,32760,32760,32760,32760,32760,32760,32760,32760,32760,32760,32760,32760,32760,32760,32760,32760,32760,32760,32760,32760,32760,32760,32760,32760,-8,-8,-8,32760,32760,32760,32760,32760,32760,32760,32760,32760,32760,32760,32760,-8,-8,-8,-8,-8,-8,-8,-8,-8,-8,-8,-8,-8,-8,-8,-8,-8,-8,-8,-8,-8,-8,-8,-8,-8,-8,-8,-8,-8,-8,-8,-8,32760,32760,32760,32760,32760,32760,32760,32760,32760,32760,32760,32760,32760,32760,32760,32760,32760,32760,32760,32760,32760,32760,-8,-8,-8,-8,-8,-8,-8,-8,32760,32760,32760,32760,32760,32760,32760,32760,32760,32760,32760,32760,32760,32760,32760,32760,32760,32760,32760,32760,32760,32760,32760,32760,32760,32760,32760,32760,32760,32760,32760,32760,32760,32760,32760,32760,32760,32760,32760,32760,32760,32760,32760,32760,32760,32760,32760,32760,32760,32760,32760,32760,32760,32760,32760,32760,32760,-8,-8,-8,-8,-8,-8,-8,-8,-8,-8,-8,-8,-8,-8,-8,-8,-8,-8,-8,-8,-8,-8,-8,-8,-8,-8,-8,-8,-8,-8,-8,-8,-8,-8,-8,-8,-8,-8,-8,-8,-8,-8,-8,-8,-8,-8,-8,-8,-8,-8,-8,-8,-8,-8,-8,-8,-8,-8,-8,-8,-8,-8,-8,-8,-8,-8,-8,-8,-8,-8,-8,-8,-8,-8,32760,-8,-8,-8,-8,-8,-8,-8,-8,-8,-8,-8,-8,-8,-8,-8,-8,-8,-8
9184,9184,9184,9208,9208,9208,9240,9240,9240,9272,9272,9272,9272,9272,9304,9304,9304,9304,9336,9336,9336,9336,9368,9400,9400,9432,9432,9432,9432,-8,-8,-8,-8,-8,-8,-8,-8,-8,-8,-8,-8,-8,-8,-8,-8,-8,-8,-8,-8,-8,-8,-8,-8,-8,-8,-8,-8,-8,-8,-8,-8,-8,-8,-8,8528,8552,8552,8552,8552,8552,8552,8584,8584,8584,8584,8584,8608,8632,8632,8632,8632,8632,8664,8664,8664,8688,8688,8720,8720,8744,8744,8776,8776,8776,8800,8800,8776,8776,8776,8744,8664,8632,8632,8664,8664,8664,8688,8688,8688,8688,8720,8776,8976,8976,9000,9000,9000,9032,9032,9032,9032,9064,9064,9088,9120,9120,9152,9152,9152,9184,9184,9184,9184,9208,9240,9240,9272,9272,9304,9336,9336,9368,9368,9368,9368,9400,9400,9400,9432,9432,9464,9496,9496,9496,9528,9528,9560,9560,9600,9632,9632,9664,9664,9696,9696,9728,9768,9768,9800,9800,9832,9872,9872,9904,9944,9944,9944,9976,9976,10016,10048,10048,10088,10088,10120,10160,10200,10240,10240,10312,10272,10352,10352,10392,10392,10432,10472,10512,10512,10552,10552,10592,10632,10632,10672,10672,10712,10712,-8,-8,10712,10840,10840,10880,10880,10880,10880,10880,10928,10928,10928,10928,10928,10928,10880,10928,-8,-8,-8,-8,-8,-8,-8,-8,-8,-8,-8,-8,-8,-8,-8,-8,-8,-8,-8,-8,-8,-8,-8,-8,-8,32760,32760,32760,32760,32760,32760,32760,32760,32760,32760,32760,32760,32760,32760,32760,32760,32760,32760,32760,32760,32760,32760,32760,32760,32760,32760,32760,32760,32760,32760,32760,32760,32760,32760,32760,32760,32760,32760,32760,32760,32760,32760,32760,32760,32760,32760,32760,32760,32760,32760,32760,32760,32760,32760,32760,32760,32760,32760,32760,32760,32760,32760,32760,32760,32760,32760,32760,32760,32760,32760,32760,32760,32760,32760,32760,32760,32760,32760,32760,32760,32760,32760,32760,32760,32760,32760,32760,32760,32760,32760,32760,32760,32760,32760,32760,32760,32760,32760,32760,32760,32760,32760,32760,32760,32760,32760,32760,32760,32760,32760,32760,32760,32760,32760,32760,32760,32760,32760,32760,32760,32760,32760,32760,32760,32760,32760,32760,32760,32760,32760,32760,32760,32760,32760,32760,32760,32760,32760,32760,32760,32760,-8,-8,32760,32760,32760,32760,32760,32760,32760,32760,32760,32760,32760,32760,-8,-8,-8,-8,-8,-8,-8,-8,-8,-8,-8,-8,-8,-8,-8,-8,-8,-8,-8,-8,-8,-8,-8,-8,-8,-8,-8,-8,-8,-8,-8,-8,32760,32760,32760,32760,32760,32760,32760,32760,32760,32760,32760,32760,32760,32760,32760,32760,32760,32760,32760,32760,32760,32760,-8,-8,-8,-8,-8,-8,-8,-8,-8,32760,32760,32760,32760,32760,32760,32760,32760,32760,32760,32760,32760,32760,32760,32760,32760,32760,32760,32760,32760,32760,32760,32760,32760,32760,32760,32760,32760,32760,32760,32760,32760,32760,32760,32760,32760,32760,32760,32760,32760,32760,32760,32760,32760,32760,32760,32760,32760,32760,32760,32760,32760,32760,32760,32760,32760,32760,-8,-8,-8,-8,-8,-8,-8,-8,-8,-8,-8,-8,-8,-8,-8,-8,-8,-8,-8,-8,-8,-8,-8,-8,-8,-8,-8,-8,-8,-8,-8,-8,-8,-8,-8,-8,-8,-8,-8,-8,-8,-8,-8,-8,-8,-8,-8,-8,-8,-8,-8,-8,-8,-8,-8,-8,-8,-8,-8,-8,-8,-8,-8,-8,-8,-8,-8,-8,-8,-8,-8,-8,-8,-8,-8,-8,-8,-8,-8,-8,-8,-8,-8,-8,-8,-8,-8,-8,-8,-8,-8,-8
9184,9184,9184,9208,9208,9208,9240,9240,9240,9272,9272,9272,9272,9304,9304,9304,9304,9304,9336,9336,9368,9336,9368,9400,9432,9464,9464,9432,-8,-8,-8,-8,-8,-8,-8,-8,-8,-8,-8,-8,-8,-8,-8,-8,-8,-8,-8,-8,-8,-8,-8,-8,-8,-8,-8,-8,-8,-8,-8,-8,-8,-8,-8,-8,-8,-8,-8,8552,8584,8584,8584,8584,8584,8584,8584,8584,8608,8608,8632,8632,8632,8664,8664,8688,8688,8720,8720,8720,8720,8744,8776,8776,8776,8776,8800,8800,8776,8776,8744,8744,8664,8608,8632,8664,8664,8664,8664,8688,8688,8688,8720,8744,8976,8976,9000,9000,9032,9032,9032,9032,9064,9064,9088,9120,9120,9120,9152,9152,9152,9184,9184,9184,9208,9208,9240,9240,9272,9272,9304,9336,9336,9368,9368,9368,9368,9400,9400,9400,9432,9464,9496,9496,9496,9496,9528,9528,9560,9600,9600,9632,9632,9664,9664,9696,9696,9728,9768,9768,9800,9832,9832,9872,9872,9904,9944,9944,9944,9976,9976,10016,10048,10048,10088,10088,10120,10160,10200,10240,10240,10312,10272,10352,10352,10392,10432,10472,10512,10512,10552,10552,10552,10592,10632,10632,10672,10672,10712,-8,-8,-8,-8,-8,10840,10880,10880,10880,10880,10880,10928,10928,10928,10928,10928,10928,10880,10928,-8,-8,-8,-8,-8,-8,-8,-8,-8,-8,-8,-8,-8,-8,-8,-8,-8,-8,-8,-8,-8,-8,-8,-8,32760,32760,32760,32760,32760,32760,32760,32760,32760,32760,32760,32760,32760,32760,32760,32760,32760,32760,32760,32760,32760,32760,32760,32760,32760,32760,32760,32760,32760,32760,32760,32760,32760,32760,32760,32760,32760,32760,32760,32760,32760,32760,32760,32760,32760,32760,32760,32760,32760,32760,32760,32760,32760,32760,32760,32760,32760,32760,32760,32760,32760,32760,32760,32760,32760,32760,32760,32760,32760,32760,32760,32760,32760,32760,32760,32760,32760,32760,32760,32760,32760,32760,32760,32760,32760,32760,32760,32760,32760,32760,32760,32760,32760,32760,32760,32760,32760,32760,32760,32760,32760,32760,32760,32760,32760,32760,32760,32760,32760,32760,32760,32760,32760,32760,32760,32760,32760,32760,32760,32760,32760,32760,32760,32760,32760,32760,32760,32760,32760,32760,32760,32760,32760,32760,32760,32760,32760,32760,32760,32760,32760,-8,-8,32760,32760,32760,32760,32760,32760,32760,32760,32760,32760,32760,32760,32760,-8,-8,-8,-8,-8,-8,-8,-8,-8,-8,-8,-8,-8,-8,-8,-8,-8,-8,-8,-8,-8,-8,-8,-8,-8,-8,-8,-8,-8,-8,-8,-8,32760,32760,32760,32760,32760,32760,32760,32760,32760,32760,32760,32760,32760,32760,32760,32760,32760,32760,32760,32760,32760,32760,-8,-8,-8,-8,-8,-8,-8,-8,32760,32760,32760,32760,32760,32760,32760,32760,32760,32760,32760,32760,32760,32760,32760,32760,32760,32760,32760,32760,32760,32760,32760,32760,32760,32760,32760,32760,32760,32760,32760,32760,32760,32760,32760,32760,32760,32760,32760,32760,32760,32760,32760,32760,32760,32760,32760,32760,32760,32760,32760,32760,32760,32760,32760,32760,32760,-8,-8,-8,-8,-8,-8,-8,-8,-8,-8,-8,-8,-8,-8,-8,-8,-8,-8,-8,-8,-8,-8,-8,-8,-8,-8,-8,-8,-8,-8,-8,-8,-8,-8,-8,-8,-8,-8,-8,-8,-8,-8,-8,-8,-8,-8,-8,-8,-8,-8,-8,-8,-8,-8,-8,-8,-8,-8,-8,-8,-8,-8,-8,-8,-8,-8,-8,-8,-8,-8,-8,-8,-8,-8,-8,-8,-8,-8,-8,-8,-8,-8,-8,-8,-8,-8,-8,-8,-8,-8,-8,-8,-8
9184,9184,9184,9208,9208,9208,9240,9240,9272,9272,9272,9272,9272,9304,9304,9304,9304,9336,9368,9368,9368,9368,9400,9432,9432,9464,-8,-8,-8,-8,-8,-8,-8,-8,-8,-8,-8,-8,-8,-8,-8,-8,-8,-8,-8,-8,-8,-8,-8,-8,-8,-8,-8,-8,-8,-8,-8,-8,-8,-8,-8,-8,-8,-8,-8,-8,-8,-8,-8,-8,9728,9728,8584,8584,8584,8584,8584,8608,8608,8608,8632,8664,8688,8688,8688,8720,8720,8720,8744,8776,8776,8776,8776,8800,8800,8800,8776,8776,8744,8720,8664,8632,8632,8664,8664,8664,8664,8664,8688,8688,8720,8744,8976,8976,9000,9000,9032,9032,9032,9032,9064,9088,9088,9120,9120,9152,9152,9152,9184,9184,9184,9184,9208,9240,9240,9240,9272,9272,9304,9304,9336,9368,9368,9368,9368,9400,9400,9432,9432,9464,9496,9496,9496,9528,9528,9528,9560,9600,9632,9632,9664,9664,9664,9696,9696,9728,9768,9800,9800,9832,9872,9872,9904,9904,9944,9944,9976,9976,10016,10016,10048,10088,10088,10120,10120,10160,10200,10240,10272,10312,10312,10352,10352,10392,10432,10472,10512,10552,10552,10552,10592,10592,10632,10672,10672,10672,-8,-8,-8,-8,-8,-8,10880,10880,10880,10880,10880,10880,10928,10928,10968,10968,10968,10928,10880,10928,-8,-8,-8,-8,-8,-8,-8,-8,-8,-8,-8,-8,-8,-8,-8,-8,-8,-8,-8,-8,-8,-8,-8,-8,32760,32760,32760,32760,32760,32760,32760,32760,32760,32760,32760,32760,32760,32760,32760,32760,32760,32760,32760,32760,32760,32760,32760,32760,32760,32760,32760,32760,32760,32760,32760,32760,32760,32760,32760,32760,32760,32760,32760,32760,32760,32760,32760,32760,32760,32760,32760,32760,32760,32760,32760,32760,32760,32760,32760,32760,32760,32760,32760,32760,32760,32760,32760,32760,32760,32760,32760,32760,32760,32760,32760,32760,32760,32760,32760,32760,32760,32760,32760,32760,32760,32760,32760,32760,32760,32760,32760,32760,32760,32760,32760,32760,32760,32760,32760,32760,32760,32760,32760,32760,32760,32760,32760,32760,32760,32760,32760,32760,32760,32760,32760,32760,32760,32760,32760,32760,32760,32760,32760,32760,32760,32760,32760,32760,32760,32760,32760,32760,32760,32760,32760,32760,32760,32760,32760,32760,32760,32760,32760,32760,32760,-8,-8,-8,32760,32760,32760,32760,32760,32760,32760,32760,32760,32760,32760,32760,-8,-8,-8,-8,-8,-8,-8,-8,-8,-8,-8,-8,-8,-8,-8,-8,-8,-8,-8,-8,-8,-8,-8,-8,-8,-8,-8,-8,-8,-8,32760,32760,32760,32760,32760,32760,32760,32760,32760,32760,32760,32760,32760,32760,32760,32760,32760,32760,32760,32760,32760,32760,32760,32760,32760,32760,32760,-8,-8,-8,-8,-8,-8,32760,32760,32760,32760,32760,32760,32760,32760,32760,32760,32760,32760,32760,32760,32760,32760,32760,32760,32760,32760,32760,32760,32760,32760,32760,32760,32760,32760,32760,32760,32760,32760,32760,32760,32760,32760,32760,32760,32760,32760,32760,32760,32760,32760,32760,32760,32760,32760,32760,32760,32760,32760,32760,32760,32760,-8,-8,-8,-8,-8,-8,-8,-8,-8,-8,-8,-8,-8,-8,-8,-8,-8,-8,-8,-8,-8,-8,-8,-8,-8,-8,-8,-8,-8,-8,-8,-8,-8,-8,-8,-8,-8,-8,-8,-8,-8,-8,-8,-8,-8,-8,-8,-8,-8,-8,-8,-8,-8,-8,-8,-8,-8,-8,-8,-8,-8,-8,-8,-8,-8,-8,-8,-8,-8,-8,-8,-8,-8,-8,-8,-8,-8,-8,-8,-8,-8,-8,-8,-8,-8,-8,-8,-8,-8,-8,-8,-8,-8,-8
9184,9184,9184,9208,9208,9208,9240,9240,9272,9272,9272,9304,9304,9304,9304,9336,9336,9336,9368,9368,9400,9400,9432,9432,9464,9496,9496,-8,-8,-8,-8,-8,-8,-8,-8,-8,-8,-8,-8,-8,-8,-8,-8,-8,-8,-8,-8,-8,-8,-8,-8,-8,-8,-8,-8,-8,-8,-8,-8,-8,-8,-8,-8,-8,-8,-8,-8,-8,-8,-8,-8,-8,9728,9728,9696,8608,8608,8608,8608,8608,8632,8664,8688,8688,8688,8720,8720,8744,8744,8776,8776,8776,8776,8800,8800,8800,8776,8776,8744,8688,8632,8632,8632,8664,8664,8664,8664,8664,8688,8688,8720,8744,8832,9032,9000,9000,9032,9032,9032,9032,9064,9088,9088,9120,9120,9152,9152,9152,9152,9184,9184,9208,9208,9240,9240,9240,9272,9272,9304,9336,9336,9368,9368,9368,9400,9400,9432,9432,9464,9496,9496,9496,9528,9528,9528,9528,9560,9600,9632,9664,9664,9664,9696,9696,9696,9728,9768,9800,9800,9832,9872,9872,9904,9904,9944,9944,9976,9976,10016,10048,10048,10088,10088,10120,10160,10200,10200,10240,10272,10312,10312,10352,10352,10392,10432,10472,10512,10552,10592,10592,10632,10632,10672,10672,10712,-8,-8,-8,-8,-8,-8,-8,10880,10880,10880,10880,10880,10928,10928,10928,10968,10968,10968,10968,10928,10928,-8,-8,-8,-8,-8,-8,-8,-8,-8,-8,-8,-8,-8,-8,-8,-8,-8,-8,-8,-8,-8,-8,-8,-8,-8,32760,32760,32760,32760,32760,32760,32760,32760,32760,32760,32760,32760,32760,32760,32760,32760,32760,32760,32760,32760,32760,32760,32760,32760,32760,32760,32760,32760,32760,32760,32760,32760,32760,32760,32760,32760,32760,32760,32760,32760,32760,32760,32760,32760,32760,32760,32760,32760,32760,32760,32760,32760,32760,32760,32760,32760,32760,32760,32760,32760,32760,32760,32760,32760,32760,32760,32760,32760,32760,32760,32760,32760,32760,32760,32760,32760,32760,32760,32760,32760,32760,32760,32760,32760,32760,32760,32760,32760,32760,32760,32760,32760,32760,32760,32760,32760,32760,32760,32760,32760,32760,32760,32760,32760,32760,32760,32760,32760,32760,32760,32760,32760,32760,32760,32760,32760,32760,32760,32760,32760,32760,32760,32760,32760,32760,32760,32760,32760,32760,32760,32760,32760,32760,32760,32760,32760,32760,32760,-8,32760,-8,32760,-8,32760,32760,32760,32760,32760,32760,32760,32760,32760,32760,32760,32760,-8,-8,-8,-8,-8,-8,-8,-8,-8,-8,-8,-8,-8,-8,-8,-8,-8,-8,-8,-8,-8,-8,-8,-8,-8,-8,-8,-8,-8,-8,32760,32760,32760,32760,32760,32760,32760,32760,32760,32760,32760,32760,32760,32760,32760,32760,32760,32760,32760,32760,32760,32760,32760,32760,32760,32760,32760,-8,-8,-8,-8,-8,-8,-8,32760,-8,32760,32760,32760,32760,32760,32760,32760,32760,32760,32760,32760,32760,32760,32760,32760,32760,32760,32760,32760,32760,32760,32760,32760,32760,32760,32760,32760,32760,32760,32760,-8,-8,-8,32760,32760,32760,32760,32760,32760,32760,32760,32760,32760,32760,32760,32760,32760,32760,32760,32760,32760,32760,-8,-8,-8,-8,-8,-8,-8,-8,-8,-8,-8,-8,-8,-8,-8,-8,-8,-8,-8,-8,-8,-8,-8,-8,-8,-8,-8,-8,-8,-8,-8,-8,-8,-8,-8,-8,-8,-8,-8,-8,-8,-8,-8,-8,-8,-8,-8,-8,-8,-8,-8,-8,-8,-8,-8,-8,-8,-8,-8,-8,-8,-8,-8,-8,-8,-8,-8,-8,-8,-8,-8,-8,-8,-8,-8,-8,-8,-8,-8,-8,-8,-8,-8,-8,-8,-8,-8,-8,-8,-8,-8,-8,-8,-8
9184,9184,9208,9208,9240,9240,9272,9272,9272,9304,9304,9304,9304,9304,9304,9336,9336,9368,9400,9400,9400,9432,9432,9464,9464,9496,9528,-8,-8,-8,-8,-8,-8,-8,-8,-8,-8,-8,-8,-8,-8,-8,-8,-8,-8,-8,-8,-8,-8,-8,-8,-8,-8,-8,-8,-8,30736,31800,-8,-8,-8,32760,32760,32760,-8,-8,-8,-8,-8,-8,-8,-8,9728,9728,9696,9696,9600,9528,9528,9528,9496,9496,9496,8688,8688,8720,8744,8744,8744,8776,8776,8776,8776,8800,8800,8800,8776,8744,8744,8720,8664,8632,8632,8664,8664,8664,8664,8664,8688,8688,8720,8744,9000,9000,9000,9032,9032,9032,9032,9064,9088,9088,9120,9120,9120,9152,9152,9152,9152,9184,9184,9184,9208,9240,9240,9240,9272,9272,9304,9304,9336,9368,9368,9368,9400,9400,9432,9432,9464,9496,9496,9496,9528,9528,9528,9560,9600,9632,9632,9664,9664,9664,9696,9696,9728,9728,9768,9800,9800,9832,9872,9904,9904,9944,9944,9944,9976,10016,10048,10048,10088,10088,10088,10120,10160,10200,10200,10240,10272,10312,10312,10352,10352,10392,10472,10512,10512,10552,10592,10592,10632,10672,10672,10712,-8,-8,-8,-8,-8,-8,-8,-8,10880,10880,10880,10880,10880,10928,10928,10968,10968,10968,10968,10968,10928,10968,10968,-8,-8,-8,-8,-8,-8,-8,-8,-8,-8,-8,-8,-8,-8,-8,-8,-8,-8,-8,-8,-8,-8,-8,-8,32760,32760,32760,32760,32760,32760,32760,32760,32760,32760,32760,32760,32760,32760,32760,32760,32760,32760,32760,32760,32760,32760,32760,32760,32760,32760,32760,32760,32760,32760,32760,32760,32760,32760,32760,32760,32760,32760,32760,32760,32760,32760,32760,32760,32760,32760,32760,32760,32760,32760,32760,32760,32760,32760,32760,32760,32760,32760,32760,32760,32760,32760,32760,32760,32760,32760,32760,32760,32760,32760,32760,32760,32760,32760,32760,32760,32760,32760,32760,32760,32760,32760,32760,32760,32760,32760,32760,32760,32760,32760,32760,32760,32760,32760,32760,32760,32760,32760,32760,32760,32760,32760,32760,32760,32760,32760,32760,32760,32760,32760,32760,32760,32760,32760,32760,32760,32760,32760,32760,32760,32760,32760,32760,32760,32760,32760,32760,32760,32760,32760,32760,32760,32760,32760,32760,32760,32760,32760,-8,-8,-8,32760,32760,32760,32760,32760,32760,32760,32760,32760,32760,32760,32760,32760,32760,-8,-8,-8,-8,-8,-8,-8,-8,-8,-8,-8,-8,-8,-8,-8,-8,-8,-8,-8,-8,-8,-8,-8,-8,-8,-8,-8,-8,32760,32760,32760,32760,32760,32760,32760,32760,32760,32760,32760,32760,32760,32760,32760,32760,32760,32760,32760,32760,32760,32760,32760,32760,32760,32760,32760,32760,32760,-8,-8,-8,-8,-8,-8,-8,-8,-8,-8,-8,32760,-8,32760,-8,32760,32760,32760,32760,32760,32760,32760,32760,32760,32760,32760,32760,32760,32760,32760,32760,32760,32760,32760,32760,32760,-8,-8,-8,-8,-8,-8,-8,-8,-8,32760,32760,32760,32760,32760,32760,32760,32760,32760,32760,32760,32760,32760,32760,32760,32760,32760,-8,-8,-8,-8,-8,-8,-8,-8,-8,-8,-8,-8,-8,-8,-8,-8,-8,-8,-8,-8,-8,-8,-8,-8,-8,-8,-8,-8,-8,-8,-8,-8,-8,-8,-8,-8,-8,-8,-8,-8,-8,-8,-8,-8,-8,-8,-8,-8,-8,-8,-8,-8,-8,-8,-8,-8,-8,-8,-8,-8,-8,-8,-8,-8,-8,-8,-8,-8,-8,-8,-8,-8,-8,-8,-8,-8,-8,-8,-8,-8,-8,-8,-8,-8,-8,-8,-8,-8,-8,-8,-8,-8,-8
9184,9184,9208,9208,9240,9240,9272,9272,9272,9304,9304,9304,9304,9304,9304,9336,9368,9368,9400,9400,9432,9432,9432,9464,9496,9496,9528,-8,-8,-8,-8,-8,-8,-8,-8,-8,-8,-8,-8,-8,-8,-8,-8,-8,-8,-8,-8,-8,-8,-8,-8,-8,-8,30736,31080,31080,31080,31800,31800,32760,32760,32760,32760,32760,32760,32760,32760,-8,-8,32760,32760,9664,9696,9696,9664,9632,9560,9528,9528,9528,9496,9496,9496,9496,8688,8688,8744,8744,8744,8776,8776,8776,8776,8800,8800,8776,8776,8744,8720,8688,8664,8632,8632,8664,8664,8664,8664,8664,8688,8720,8744,8776,9000,9000,9000,9032,9032,9032,9064,9064,9088,9088,9120,9120,9120,9152,9152,9152,9152,9184,9184,9208,9208,9240,9240,9240,9272,9304,9304,9304,9336,9368,9368,9400,9400,9400,9432,9464,9464,9496,9496,9528,9528,9528,9560,9560,9600,9632,9632,9664,9664,9696,9696,9728,9728,9768,9800,9800,9832,9872,9904,9904,9904,9944,9944,9976,9976,10016,10048,10048,10088,10088,10088,10120,10160,10200,10240,10240,10272,10312,10312,10352,10392,10432,10472,10512,10552,10592,10592,10632,10672,10672,10712,-8,-8,-8,-8,-8,-8,-8,-8,-8,10928,10928,10928,10880,10928,10928,10928,10968,10968,10968,10968,10968,10968,10968,10968,-8,-8,-8,-8,-8,-8,-8,-8,-8,-8,-8,-8,-8,-8,-8,-8,-8,-8,-8,-8,-8,-8,-8,-8,-8,32760,32760,32760,32760,32760,32760,32760,32760,32760,32760,32760,32760,32760,32760,32760,32760,32760,32760,32760,32760,32760,32760,32760,32760,32760,32760,32760,32760,32760,32760,32760,32760,32760,32760,32760,32760,32760,32760,32760,32760,32760,32760,32760,32760,32760,32760,32760,32760,32760,32760,32760,32760,32760,32760,32760,32760,32760,32760,32760,32760,32760,32760,32760,32760,32760,32760,32760,32760,32760,32760,32760,32760,32760,32760,32760,32760,32760,32760,32760,32760,32760,32760,32760,32760,32760,32760,32760,32760,32760,32760,32760,32760,32760,32760,32760,32760,32760,32760,32760,32760,32760,32760,32760,32760,32760,32760,32760,32760,32760,32760,32760,32760,32760,32760,32760,32760,32760,32760,32760,32760,32760,32760,32760,32760,32760,32760,32760,32760,32760,32760,32760,32760,32760,32760,32760,32760,32760,32760,-8,-8,32760,32760,32760,32760,32760,32760,32760,32760,32760,32760,32760,32760,32760,32760,-8,-8,-8,-8,-8,-8,-8,-8,-8,-8,-8,-8,-8,-8,-8,-8,-8,-8,-8,-8,-8,-8,-8,-8,-8,-8,-8,-8,-8,32760,32760,32760,32760,32760,32760,32760,32760,32760,32760,32760,32760,32760,32760,32760,32760,32760,32760,32760,32760,32760,32760,32760,32760,32760,32760,32760,32760,-8,-8,-8,-8,-8,-8,-8,-8,-8,-8,-8,-8,-8,-8,-8,-8,32760,32760,32760,-8,32760,32760,32760,-8,-8,-8,32760,32760,32760,32760,32760,32760,32760,32760,-8,-8,-8,-8,-8,-8,-8,-8,-8,-8,-8,-8,32760,32760,32760,32760,32760,32760,32760,32760,32760,32760,32760,32760,32760,32760,32760,32760,32760,-8,-8,-8,-8,-8,-8,-8,-8,-8,-8,-8,-8,-8,-8,-8,-8,-8,-8,-8,-8,-8,-8,-8,-8,-8,-8,-8,-8,-8,-8,-8,-8,-8,-8,-8,-8,-8,-8,-8,-8,-8,-8,-8,-8,-8,-8,-8,-8,-8,-8,-8,-8,-8,-8,-8,-8,-8,-8,-8,-8,-8,-8,-8,-8,-8,-8,-8,-8,-8,-8,-8,-8,-8,-8,-8,-8,-8,-8,-8,-8,-8,-8,-8,-8,-8,-8,-8,-8,-8,-8,-8,-8
9184,9184,9208,9240,9240,9272,9272,9272,9272,9304,9304,9304,9304,9336,9336,9368,9368,9400,9432,9432,9432,9432,9464,9464,9496,9496,9528,-8,-8,-8,-8,-8,-8,-8,-8,-8,-8,-8,-8,-8,-8,-8,-8,-8,-8,-8,-8,-8,-8,-8,-8,-8,-8,30736,31080,30736,31080,31440,31800,32760,32760,32760,32760,32760,32760,32760,32760,32760,32760,32760,-8,-8,9664,9664,9632,9632,9560,9528,9528,9528,9528,9496,9528,9496,9496,9464,9432,9432,9400,9400,8744,8744,8776,8776,8776,8776,8744,8688,8720,8688,8664,8664,8664,8664,8664,8664,8664,8664,8688,8720,8776,8800,9000,9000,9000,9000,9032,9032,9064,9064,9088,9088,9120,9120,9120,9120,9152,9152,9152,9184,9184,9208,9208,9240,9272,9272,9272,9304,9304,9336,9368,9368,9368,9400,9400,9400,9432,9464,9496,9496,9528,9528,9528,9560,9560,9600,9632,9632,9664,9664,9664,9696,9696,9728,9768,9768,9800,9800,9832,9872,9904,9904,9904,9944,9944,9976,9976,10016,10048,10048,10088,10088,10120,10160,10160,10200,10240,10272,10272,10312,10352,10352,10392,10432,10472,10512,10552,10592,10592,10632,10672,10712,10712,11232,11232,-8,-8,-8,-8,-8,-8,-8,10968,10928,10880,10880,10928,10928,10928,10968,10968,10968,10968,11008,10968,10968,10968,-8,-8,-8,-8,-8,-8,-8,-8,-8,-8,-8,-8,-8,-8,-8,-8,-8,-8,-8,-8,-8,-8,-8,-8,32760,32760,32760,32760,32760,32760,32760,32760,32760,32760,32760,32760,32760,32760,32760,32760,32760,32760,32760,32760,32760,32760,32760,32760,32760,32760,32760,32760,32760,32760,32760,32760,32760,32760,32760,32760,32760,32760,32760,32760,32760,32760,32760,32760,32760,32760,32760,32760,32760,32760,32760,32760,32760,32760,32760,32760,32760,32760,32760,32760,32760,32760,32760,32760,32760,32760,32760,32760,32760,32760,32760,32760,32760,32760,32760,32760,32760,32760,32760,32760,32760,32760,32760,32760,32760,32760,32760,32760,32760,32760,32760,32760,32760,32760,32760,32760,32760,32760,32760,32760,32760,32760,32760,32760,32760,32760,32760,32760,32760,32760,32760,32760,32760,32760,32760,32760,32760,32760,32760,32760,32760,32760,32760,32760,32760,32760,32760,32760,32760,32760,32760,32760,32760,32760,32760,32760,32760,32760,32760,-8,32760,32760,32760,32760,32760,32760,32760,32760,32760,32760,32760,32760,32760,32760,-8,-8,-8,-8,-8,-8,-8,-8,-8,-8,-8,-8,-8,-8,-8,-8,-8,-8,-8,-8,-8,-8,-8,-8,-8,-8,-8,-8,-8,32760,32760,32760,32760,32760,32760,32760,32760,32760,32760,32760,32760,32760,32760,32760,32760,32760,32760,32760,32760,32760,32760,32760,32760,32760,32760,32760,32760,32760,32760,-8,-8,-8,-8,-8,-8,-8,-8,-8,-8,-8,-8,-8,-8,-8,-8,-8,-8,-8,-8,-8,-8,-8,-8,-8,-8,32760,-8,-8,-8,32760,32760,-8,-8,-8,-8,-8,-8,-8,-8,-8,-8,-8,-8,-8,-8,32760,32760,32760,32760,32760,32760,32760,32760,32760,32760,32760,32760,32760,32760,32760,32760,-8,-8,-8,-8,-8,-8,-8,-8,-8,-8,-8,-8,-8,-8,-8,-8,-8,-8,-8,-8,-8,-8,-8,-8,-8,-8,-8,-8,-8,-8,-8,-8,-8,-8,-8,-8,-8,-8,-8,-8,-8,-8,-8,-8,-8,-8,-8,-8,-8,-8,-8,-8,-8,-8,-8,-8,-8,-8,-8,-8,-8,-8,-8,-8,-8,-8,-8,-8,-8,-8,-8,-8,-8,-8,-8,-8,-8,-8,-8,-8,-8,-8,-8,-8,-8,-8,-8,-8,-8,-8,-8,-8
9184,9184,9208,9240,9240,9272,9272,9272,9304,9304,9304,9304,9336,9336,9336,9368,9400,9432,9432,9432,9432,9464,9464,9464,9496,9496,-8,-8,-8,-8,-8,-8,-8,-8,-8,-8,-8,-8,-8,-8,-8,-8,-8,-8,-8,-8,-8,-8,-8,-8,-8,-8,31080,31080,31080,31080,31080,31800,31800,31800,32760,32760,32760,32760,32760,32760,32760,32760,32760,32760,32760,-8,9632,9632,9600,9600,9528,9528,9528,9528,9528,9496,9528,9496,9496,9496,9464,9432,9432,9432,9432,8776,8776,8776,8776,8776,8744,8688,8688,8664,8664,8664,8664,8664,8664,8664,8688,8688,8688,8744,8776,8800,9000,9000,9000,9000,9032,9032,9064,9088,9088,9120,9120,9120,9152,9152,9152,9152,9184,9184,9208,9208,9240,9240,9272,9272,9272,9304,9336,9336,9368,9368,9368,9400,9400,9432,9464,9464,9496,9496,9528,9528,9528,9560,9560,9600,9632,9632,9664,9664,9664,9696,9696,9728,9768,9768,9800,9800,9832,9872,9904,9904,9944,9944,9976,9976,10016,10048,10048,10088,10088,10120,10120,10160,10200,10200,10240,10272,10312,10352,10352,10392,10392,10432,10472,10512,10552,10592,10632,10672,10712,10712,11192,11192,11232,11232,11232,-8,-8,-8,-8,11008,10968,10968,10928,10928,10928,10968,10968,10968,10968,10968,11008,11008,10968,10968,10968,-8,-8,-8,-8,-8,-8,-8,-8,-8,-8,-8,-8,-8,-8,-8,-8,-8,-8,-8,-8,-8,-8,-8,32760,32760,32760,32760,32760,32760,32760,32760,32760,32760,32760,32760,32760,32760,32760,32760,32760,32760,32760,32760,32760,32760,32760,32760,32760,32760,32760,32760,32760,32760,32760,32760,32760,32760,32760,32760,32760,32760,32760,32760,32760,32760,32760,32760,32760,32760,32760,32760,32760,32760,32760,32760,32760,32760,32760,32760,32760,32760,32760,32760,32760,32760,32760,32760,32760,32760,32760,32760,32760,32760,32760,32760,32760,32760,32760,32760,32760,32760,32760,32760,32760,32760,32760,32760,32760,32760,32760,32760,32760,32760,32760,32760,32760,32760,32760,32760,32760,32760,32760,32760,32760,32760,32760,32760,32760,32760,32760,32760,32760,32760,32760,32760,32760,32760,32760,32760,32760,32760,32760,32760,32760,32760,32760,32760,32760,32760,32760,32760,32760,32760,32760,32760,32760,32760,32760,32760,32760,32760,32760,32760,-8,32760,32760,32760,32760,32760,32760,32760,32760,32760,32760,32760,32760,32760,32760,-8,-8,-8,-8,-8,-8,-8,-8,-8,-8,-8,-8,-8,-8,-8,-8,-8,-8,-8,-8,-8,-8,-8,-8,-8,-8,-8,-8,-8,-8,-8,-8,-8,32760,32760,32760,32760,32760,32760,32760,32760,32760,32760,32760,32760,32760,32760,32760,32760,32760,32760,32760,32760,32760,32760,32760,32760,32760,32760,-8,-8,-8,-8,-8,-8,-8,-8,-8,-8,-8,-8,-8,-8,-8,-8,-8,-8,-8,-8,-8,-8,-8,-8,-8,-8,-8,-8,-8,-8,-8,-8,-8,-8,-8,-8,-8,-8,-8,-8,-8,-8,-8,-8,-8,-8,32760,32760,32760,32760,32760,32760,32760,32760,32760,32760,32760,-8,-8,32760,32760,32760,-8,-8,-8,-8,-8,-8,-8,-8,-8,-8,-8,-8,-8,-8,-8,-8,-8,-8,-8,-8,-8,-8,-8,-8,-8,-8,-8,-8,-8,-8,-8,-8,-8,-8,-8,-8,-8,-8,-8,-8,-8,-8,-8,-8,-8,-8,-8,-8,-8,-8,-8,-8,-8,-8,-8,-8,-8,-8,-8,-8,-8,-8,-8,-8,-8,-8,-8,-8,-8,-8,-8,-8,-8,-8,-8,-8,-8,-8,-8,-8,-8,-8,-8,-8,-8,-8,-8,-8,-8,-8,-8,-8
9184,9208,9208,9240,9240,9272,9272,9272,9304,9304,9304,9336,9336,9368,9368,9400,9432,9432,9464,9464,9464,9464,9464,9496,9496,-8,-8,-8,-8,-8,-8,-8,-8,-8,-8,-8,-8,-8,-8,-8,-8,-8,-8,-8,-8,-8,-8,-8,-8,-8,-8,31080,31080,31080,31080,31080,31440,31440,31800,31800,31800,31800,31800,32760,32760,32760,32760,32760,32760,32760,9600,9600,9560,9600,9560,9560,9528,9496,9496,9496,9528,9496,9496,9496,9496,9464,9464,9432,9432,9400,9400,9432,9432,9464,8744,8744,8744,8688,8688,8688,8664,8664,8664,8664,8664,8664,8688,8688,8688,8744,8776,8776,9000,9000,9000,9000,9032,9032,9064,9088,9120,9120,9120,9120,9152,9152,9152,9152,9152,9184,9184,9208,9240,9240,9272,9272,9304,9304,9336,9336,9368,9368,9400,9400,9432,9432,9464,9464,9496,9496,9528,9528,9528,9560,9560,9600,9632,9632,9664,9664,9696,9696,9728,9728,9768,9768,9800,9832,9872,9872,9904,9904,9944,9976,9976,10016,10016,10048,10048,10088,10088,10120,10160,10160,10200,10200,10240,10272,10312,10352,10352,10392,10392,10432,10472,10512,10552,10632,10672,10712,10752,10752,11144,11144,11192,11232,11192,-8,-8,-8,11008,11008,10968,10968,10928,10928,10968,10968,10968,10968,10968,11008,11008,11008,11008,10968,-8,-8,-8,-8,-8,-8,-8,-8,-8,-8,-8,-8,-8,-8,-8,-8,-8,-8,-8,-8,-8,-8,-8,-8,-8,32760,32760,32760,32760,32760,32760,32760,32760,32760,32760,32760,32760,32760,32760,32760,32760,32760,32760,32760,32760,32760,32760,32760,32760,32760,32760,32760,32760,32760,32760,32760,32760,32760,32760,32760,32760,32760,32760,32760,32760,32760,32760,32760,32760,32760,32760,32760,32760,32760,32760,32760,32760,32760,32760,32760,32760,32760,32760,32760,32760,32760,32760,32760,32760,32760,32760,32760,32760,32760,32760,32760,32760,32760,32760,32760,32760,32760,32760,32760,32760,32760,32760,32760,32760,32760,32760,32760,32760,32760,32760,32760,32760,32760,32760,32760,32760,32760,32760,32760,32760,32760,32760,32760,32760,32760,32760,32760,32760,32760,32760,32760,32760,32760,32760,32760,32760,32760,32760,32760,32760,32760,32760,32760,32760,32760,32760,32760,32760,32760,32760,32760,32760,32760,32760,32760,32760,32760,32760,32760,-8,32760,32760,32760,32760,32760,32760,32760,32760,32760,32760,32760,32760,32760,32760,32760,32760,32760,-8,-8,-8,-8,-8,-8,-8,-8,-8,-8,-8,-8,-8,-8,-8,-8,-8,-8,-8,-8,-8,-8,-8,-8,-8,-8,-8,-8,-8,-8,-8,-8,32760,32760,32760,32760,32760,32760,32760,32760,32760,32760,32760,32760,32760,32760,32760,32760,32760,32760,32760,32760,32760,32760,32760,32760,32760,32760,32760,-8,-8,-8,-8,-8,-8,-8,-8,-8,-8,-8,-8,-8,-8,-8,-8,-8,-8,-8,-8,-8,-8,-8,-8,-8,-8,-8,-8,-8,-8,-8,-8,-8,-8,-8,-8,-8,-8,-8,-8,-8,-8,-8,-8,32760,32760,32760,32760,32760,32760,32760,32760,-8,32760,-8,-8,-8,-8,-8,-8,-8,-8,-8,-8,-8,-8,-8,-8,-8,-8,-8,-8,-8,-8,-8,-8,-8,-8,-8,-8,-8,-8,-8,-8,-8,-8,-8,-8,-8,-8,-8,-8,-8,-8,-8,-8,-8,-8,-8,-8,-8,-8,-8,-8,-8,-8,-8,-8,-8,-8,-8,-8,-8,-8,-8,-8,-8,-8,-8,-8,-8,-8,-8,-8,-8,-8,-8,-8,-8,-8,-8,-8,-8,-8,-8,-8,-8,-8,-8,-8,-8,-8,-8,-8,-8,-8,-8,-8,-8,-8,-8
9208,9208,9240,9240,9272,9272,9272,9304,9304,9304,9336,9336,9368,9368,9400,9400,9432,9464,9464,9464,9464,9496,9496,9496,9496,-8,-8,-8,-8,-8,-8,-8,-8,-8,-8,-8,-8,-8,-8,-8,-8,-8,-8,-8,-8,-8,-8,-8,-8,-8,-8,30736,30736,31080,31080,31440,31440,31800,31800,31800,31800,31800,31800,32760,32760,32760,32760,32760,32760,9600,9600,9560,9560,9560,9528,9528,9528,9528,9528,9528,9528,9496,9496,9496,9496,9464,9464,9432,9432,9400,9400,9400,9400,9432,9400,9400,8688,8664,8688,8664,8664,8664,8664,8664,8688,8688,8688,8688,8720,8776,8800,8976,8976,9000,9000,9032,9032,9032,9064,9088,9088,9120,9120,9120,9152,9152,9152,9152,9184,9184,9208,9208,9240,9240,9272,9272,9304,9304,9336,9336,9368,9368,9400,9400,9432,9432,9464,9464,9496,9496,9528,9528,9560,9560,9600,9632,9632,9664,9664,9696,9696,9728,9728,9768,9768,9800,9800,9832,9872,9872,9904,9904,9944,9976,10016,10016,10048,10048,10088,10088,10120,10160,10160,10200,10200,10240,10240,10312,10312,10352,10352,10392,10392,10432,10472,10512,10552,10592,10712,10800,10880,11104,11104,11144,11192,11232,11232,-8,-8,-8,11056,11008,11008,10968,10968,10968,10968,10968,10968,11008,11008,11008,11008,11008,11008,11008,-8,-8,-8,-8,-8,-8,-8,-8,-8,-8,-8,-8,-8,-8,-8,-8,-8,-8,-8,-8,-8,-8,-8,-8,-8,32760,32760,32760,32760,32760,32760,32760,32760,32760,32760,32760,32760,32760,32760,32760,32760,32760,32760,32760,32760,32760,32760,32760,32760,32760,32760,32760,32760,32760,32760,32760,32760,32760,32760,32760,32760,32760,32760,32760,32760,32760,32760,32760,32760,32760,32760,32760,32760,32760,32760,32760,32760,32760,32760,32760,32760,32760,32760,32760,32760,32760,32760,32760,32760,32760,32760,32760,32760,32760,32760,32760,32760,32760,32760,32760,32760,32760,32760,32760,32760,32760,32760,32760,32760,32760,32760,32760,32760,32760,32760,32760,32760,32760,32760,32760,32760,32760,32760,32760,32760,32760,32760,32760,32760,32760,32760,32760,32760,32760,32760,32760,32760,32760,32760,32760,32760,32760,32760,32760,32760,32760,32760,32760,32760,32760,32760,32760,32760,32760,32760,32760,32760,32760,32760,32760,32760,32760,32760,32760,32760,32760,32760,32760,32760,32760,32760,32760,32760,32760,32760,32760,32760,32760,32760,32760,32760,32760,32760,-8,-8,-8,-8,-8,-8,-8,-8,-8,-8,-8,-8,-8,-8,-8,-8,-8,-8,-8,-8,-8,-8,-8,-8,-8,-8,-8,-8,-8,-8,-8,-8,32760,32760,32760,32760,32760,32760,32760,32760,32760,32760,32760,32760,32760,32760,32760,32760,32760,32760,32760,32760,32760,32760,32760,32760,32760,32760,-8,-8,-8,-8,-8,-8,-8,-8,-8,-8,-8,-8,-8,-8,-8,-8,-8,-8,-8,-8,-8,-8,-8,-8,-8,-8,-8,-8,-8,-8,-8,-8,-8,-8,-8,-8,-8,-8,-8,-8,-8,-8,-8,-8,-8,-8,32760,32760,-8,-8,-8,-8,-8,-8,-8,-8,-8,-8,-8,-8,-8,-8,-8,-8,-8,-8,-8,-8,-8,-8,-8,-8,-8,-8,-8,-8,-8,-8,-8,-8,-8,-8,-8,-8,-8,-8,-8,-8,-8,-8,-8,-8,-8,-8,-8,-8,-8,-8,-8,-8,-8,-8,-8,-8,-8,-8,-8,-8,-8,-8,-8,-8,-8,-8,-8,-8,-8,-8,-8,-8,-8,-8,-8,-8,-8,-8,-8,-8,-8,-8,-8,-8,-8,-8,-8,-8,-8,-8,-8,-8,-8,-8,-8,-8,-8,-8,-8,-8,-8,-8,-8
9208,9240,9240,9272,9272,9272,9304,9304,9304,9336,9336,9368,9368,9400,9400,9432,9432,9464,9464,9464,9464,9496,9496,-8,-8,-8,-8,-8,-8,-8,-8,-8,-8,-8,-8,-8,-8,-8,-8,-8,-8,-8,-8,-8,-8,-8,-8,-8,30400,30736,30736,30736,30736,30736,31080,31440,31440,31800,31800,31800,31800,31800,32760,32760,32760,32760,32760,32760,32760,9560,9560,9560,9528,9560,9528,9528,9528,9528,9528,9528,9496,9496,9496,9496,9496,9496,9464,9432,9432,9400,9400,9400,9400,9400,9400,9400,8664,8664,8664,8664,8664,8664,8664,8664,8688,8688,8688,8688,8720,8776,8776,9000,9000,9000,9032,9032,9032,9064,9064,9088,9088,9120,9120,9120,9152,9152,9152,9184,9184,9208,9208,9240,9240,9272,9272,9304,9304,9336,9336,9368,9368,9400,9400,9400,9432,9432,9464,9464,9496,9496,9528,9528,9560,9560,9600,9632,9632,9632,9664,9664,9696,9728,9728,9768,9768,9800,9800,9832,9872,9872,9904,9944,9944,9976,10016,10048,10048,10088,10088,10088,10120,10160,10160,10200,10200,10240,10272,10312,10312,10352,10352,10392,10432,10432,10472,10512,10552,10672,10800,10928,11008,11056,11104,11104,11192,11232,11232,-8,-8,11056,11008,11008,11008,10968,10968,10968,11008,11008,11008,11008,11008,11008,11008,11008,11056,-8,-8,-8,-8,-8,-8,-8,-8,-8,-8,-8,-8,-8,-8,-8,-8,-8,-8,-8,-8,-8,-8,-8,-8,-8,-8,32760,32760,32760,32760,32760,32760,32760,32760,32760,32760,32760,32760,32760,32760,32760,32760,32760,32760,32760,32760,32760,32760,32760,32760,32760,32760,32760,32760,32760,32760,32760,32760,32760,32760,32760,32760,32760,32760,32760,32760,32760,32760,32760,32760,32760,32760,32760,32760,32760,32760,32760,32760,32760,32760,32760,32760,32760,32760,32760,32760,32760,32760,32760,32760,32760,32760,32760,32760,32760,32760,32760,32760,32760,32760,32760,32760,32760,32760,32760,32760,32760,32760,32760,32760,32760,32760,32760,32760,32760,32760,32760,32760,32760,32760,32760,32760,32760,32760,32760,32760,32760,32760,32760,32760,32760,32760,32760,32760,32760,32760,32760,32760,32760,32760,32760,32760,32760,32760,32760,32760,32760,32760,32760,32760,32760,32760,32760,32760,32760,32760,32760,32760,32760,32760,32760,32760,32760,32760,-8,32760,32760,32760,32760,32760,32760,32760,32760,32760,32760,32760,32760,32760,32760,32760,32760,32760,-8,-8,-8,-8,-8,-8,-8,-8,-8,-8,-8,-8,-8,-8,-8,-8,-8,-8,-8,-8,-8,-8,-8,-8,-8,-8,-8,-8,-8,-8,-8,-8,-8,32760,32760,32760,32760,32760,32760,32760,32760,32760,32760,32760,32760,32760,32760,32760,32760,32760,32760,32760,32760,32760,32760,32760,32760,32760,32760,32760,-8,-8,-8,-8,-8,-8,-8,-8,-8,-8,-8,-8,-8,-8,-8,-8,-8,-8,-8,-8,-8,-8,-8,-8,-8,-8,-8,-8,-8,-8,-8,-8,-8,-8,-8,-8,-8,-8,-8,-8,-8,-8,-8,-8,-8,-8,-8,-8,-8,-8,-8,-8,-8,-8,-8,-8,-8,-8,-8,-8,-8,-8,-8,-8,-8,-8,-8,-8,-8,-8,-8,-8,-8,-8,-8,-8,-8,-8,-8,-8,-8,-8,-8,-8,-8,-8,-8,-8,-8,-8,-8,-8,-8,-8,-8,-8,-8,-8,-8,-8,-8,-8,-8,-8,-8,-8,-8,-8,-8,-8,-8,-8,-8,-8,-8,-8,-8,-8,-8,-8,-8,-8,-8,-8,-8,-8,-8,-8,-8,-8,-8,-8,-8,-8,-8,-8,-8,-8,-8,-8,-8,-8,-8,-8,-8,-8,-8,-8,-8,-8,-8
9240,9240,9272,9272,9272,9272,9304,9304,9336,9336,9336,9368,9368,9400,9400,9400,9432,9464,9464,9464,9464,9496,-8,-8,-8,-8,-8,-8,-8,-8,-8,-8,-8,-8,-8,-8,-8,-8,-8,-8,-8,-8,-8,-8,-8,-8,-8,30400,30736,30736,30736,30736,31080,31080,31440,31800,31800,31800,31800,31800,31800,32760,32760,32760,32760,32760,32760,32760,32760,9560,9560,9528,9528,9528,9528,9528,9528,9528,9528,9528,9528,9528,9528,9496,9496,9464,9464,9432,9432,9400,9400,9400,9400,9400,9368,8664,8664,8664,8688,8664,8688,8688,8688,8688,8688,8688,8688,8688,8744,8776,8776,9032,9032,9032,9032,9032,9032,9064,9088,9088,9088,9120,9120,9120,9152,9152,9152,9184,9184,9208,9208,9240,9240,9272,9272,9304,9304,9336,9368,9368,9400,9400,9400,9400,9432,9432,9464,9464,9496,9496,9528,9528,9560,9600,9600,9632,9632,9664,9664,9664,9696,9728,9728,9768,9800,9800,9832,9832,9872,9904,9904,9944,9944,9976,10016,10048,10048,10088,10088,10088,10120,10160,10200,10200,10200,10240,10272,10272,10312,10352,10352,10392,10432,10472,10512,10552,10800,10840,10880,10968,11008,11056,11056,11104,11144,11232,-8,-8,-8,-8,11008,11008,10968,10968,10968,10968,11008,11008,11008,11008,11008,11008,11056,11056,-8,-8,-8,-8,-8,-8,-8,-8,-8,-8,-8,-8,-8,-8,-8,-8,-8,-8,-8,-8,-8,-8,-8,-8,-8,-8,32760,32760,32760,32760,32760,32760,32760,32760,32760,32760,32760,32760,32760,32760,32760,32760,32760,32760,32760,32760,32760,32760,32760,32760,32760,32760,32760,32760,32760,32760,32760,32760,32760,32760,32760,32760,32760,32760,32760,32760,32760,32760,32760,32760,32760,32760,32760,32760,32760,32760,32760,32760,32760,32760,32760,32760,32760,32760,32760,32760,32760,32760,32760,32760,32760,32760,32760,32760,32760,32760,32760,32760,32760,32760,32760,32760,32760,32760,32760,32760,32760,32760,32760,32760,32760,32760,32760,32760,32760,32760,32760,32760,32760,32760,32760,32760,32760,32760,32760,32760,32760,32760,32760,32760,32760,32760,32760,32760,32760,32760,32760,32760,32760,32760,32760,32760,32760,32760,32760,32760,32760,32760,32760,32760,32760,32760,32760,32760,32760,32760,32760,32760,32760,32760,32760,32760,32760,32760,32760,32760,32760,32760,32760,32760,32760,32760,32760,32760,32760,32760,32760,32760,32760,32760,32760,32760,32760,32760,-8,-8,-8,-8,-8,-8,-8,-8,-8,-8,-8,-8,-8,-8,-8,-8,-8,-8,-8,-8,-8,-8,-8,-8,-8,-8,-8,-8,-8,-8,-8,-8,-8,32760,32760,32760,32760,32760,32760,32760,32760,32760,32760,32760,32760,32760,32760,32760,32760,32760,32760,32760,32760,32760,32760,32760,32760,32760,32760,-8,-8,-8,-8,-8,-8,-8,-8,-8,-8,-8,-8,-8,-8,-8,-8,-8,-8,-8,-8,-8,-8,-8,-8,-8,-8,-8,-8,-8,-8,-8,-8,-8,-8,-8,-8,-8,-8,-8,-8,-8,-8,-8,-8,-8,-8,-8,-8,-8,-8,-8,-8,-8,-8,-8,-8,-8,-8,-8,-8,-8,-8,-8,-8,-8,-8,-8,-8,-8,-8,-8,-8,-8,-8,-8,-8,-8,-8,-8,-8,-8,-8,-8,-8,-8,-8,-8,-8,-8,-8,-8,-8,-8,-8,-8,-8,-8,-8,-8,-8,-8,-8,-8,-8,-8,-8,-8,-8,-8,-8,-8,-8,-8,-8,-8,-8,-8,-8,-8,-8,-8,-8,-8,-8,-8,-8,-8,-8,-8,-8,-8,-8,-8,-8,-8,-8,-8,-8,-8,-8,-8,-8,-8,-8,-8,-8,-8,-8,-8,-8,-8
9240,9240,9272,9304,9304,9304,9304,9304,9336,9336,9336,9336,9368,9368,9400,9400,9432,9432,9464,9432,9432,-8,-8,-8,-8,-8,-8,-8,-8,-8,-8,-8,-8,-8,-8,-8,-8,-8,-8,-8,-8,-8,-8,-8,-8,-8,30400,30400,30400,30736,30736,30736,31080,31080,31440,31800,31800,31800,31800,31800,31800,31800,31800,31800,32760,32760,32760,31800,31800,9560,9560,9560,9560,9528,9528,9528,9528,9528,9528,9528,9528,9528,9528,9496,9496,9464,9464,9432,9432,9400,9400,9400,9400,9400,9400,8664,8664,8664,8664,8664,8688,8688,8688,8688,8720,8720,8720,8744,8744,8776,8776,-8,9032,9032,9064,9064,9064,9064,9088,9088,9088,9120,9120,9120,9152,9152,9184,9184,9184,9208,9240,9240,9240,9272,9272,9304,9304,9336,9368,9368,9400,9400,9400,9432,9432,9432,9464,9496,9496,9496,9528,9528,9560,9600,9600,9632,9632,9664,9664,9664,9696,9728,9728,9768,9800,9800,9832,9832,9872,9904,9904,9944,9944,9976,10016,10048,10048,10088,10088,10120,10120,10160,10200,10200,10200,10240,10272,10272,10312,10352,10392,10432,10472,10512,10552,10632,10880,10840,10880,10968,11008,11008,11056,11056,11104,-8,-8,-8,-8,-8,11008,11008,10968,10968,10968,10968,10968,11008,11008,11008,11008,11008,11008,11056,-8,-8,-8,-8,-8,-8,-8,-8,-8,-8,-8,-8,-8,-8,-8,-8,-8,-8,-8,-8,-8,-8,-8,-8,-8,32760,32760,32760,32760,32760,32760,32760,32760,32760,32760,32760,32760,32760,32760,32760,32760,32760,32760,32760,32760,32760,32760,32760,32760,32760,32760,32760,32760,32760,32760,32760,32760,32760,32760,32760,32760,32760,32760,32760,32760,32760,32760,32760,32760,32760,32760,32760,32760,32760,32760,32760,32760,32760,32760,32760,32760,32760,32760,32760,32760,32760,32760,32760,32760,32760,32760,32760,32760,32760,32760,32760,32760,32760,32760,32760,32760,32760,32760,32760,32760,32760,32760,32760,32760,32760,32760,32760,32760,32760,32760,32760,32760,32760,32760,32760,32760,32760,32760,32760,32760,32760,32760,32760,32760,32760,32760,32760,32760,32760,32760,32760,32760,32760,32760,32760,32760,32760,32760,32760,32760,32760,32760,32760,32760,32760,32760,32760,32760,32760,32760,32760,32760,32760,32760,32760,32760,32760,32760,32760,32760,32760,32760,32760,32760,32760,32760,32760,32760,32760,32760,32760,32760,32760,32760,32760,32760,-8,-8,-8,-8,-8,-8,-8,-8,-8,-8,-8,-8,-8,-8,-8,-8,-8,-8,-8,-8,-8,-8,-8,-8,-8,-8,-8,-8,-8,-8,-8,-8,-8,-8,-8,32760,32760,32760,32760,32760,32760,32760,32760,32760,-8,-8,-8,-8,-8,32760,32760,32760,32760,32760,32760,32760,32760,32760,32760,32760,-8,-8,-8,-8,-8,-8,-8,-8,-8,-8,-8,-8,-8,-8,-8,-8,-8,-8,-8,-8,-8,-8,-8,-8,-8,-8,-8,-8,-8,-8,-8,-8,-8,-8,-8,-8,-8,-8,-8,-8,-8,-8,-8,-8,-8,-8,-8,-8,-8,-8,-8,-8,-8,-8,-8,-8,-8,-8,-8,-8,-8,-8,-8,-8,-8,-8,-8,-8,-8,-8,-8,-8,-8,-8,-8,-8,-8,-8,-8,-8,-8,-8,-8,-8,-8,-8,-8,-8,-8,-8,-8,-8,-8,-8,-8,-8,-8,-8,-8,-8,-8,-8,-8,-8,-8,-8,-8,-8,-8,-8,-8,-8,-8,-8,-8,-8,-8,-8,-8,-8,-8,-8,-8,-8,-8,-8,-8,-8,-8,-8,-8,-8,-8,-8,-8,-8,-8,-8,-8,-8,-8,-8,-8,-8,-8,-8,-8,-8,-8,-8,-8,-8,-8
9272,9272,9272,9304,9304,9304,9304,9304,9336,9336,9336,9336,9368,9400,9400,9400,9432,9432,-8,-8,-8,-8,-8,-8,-8,-8,-8,-8,-8,-8,-8,-8,-8,-8,-8,-8,-8,-8,-8,-8,-8,-8,-8,-8,-8,30400,30072,30400,30400,30400,30736,30400,30736,31080,31440,31440,31800,31800,31800,31800,31800,31800,31800,31800,31800,31800,31800,31800,9560,9560,9600,9560,9560,9528,9528,9528,9528,9528,9528,9528,9528,9528,9528,9496,9496,9464,9464,9432,9432,9400,9400,9400,9400,9400,9400,9368,8664,8664,8688,8664,8688,8688,8688,8688,8720,8720,8720,8744,8776,8800,8800,-8,9064,9064,9088,9088,9064,9064,9088,9120,9120,9120,9120,9152,9152,9152,9184,9184,9208,9208,9240,9240,9240,9272,9272,9304,9304,9336,9368,9368,9400,9400,9400,9432,9432,9432,9464,9464,9496,9496,9528,9528,9560,9600,9600,9632,9632,9664,9664,9664,9696,9728,9728,9768,9800,9800,9800,9832,9872,9904,9904,9944,9944,9976,10016,10048,10048,10088,10088,10120,10120,10160,10200,10200,10200,10240,10272,10312,10352,10352,10392,10432,10512,10592,10672,10800,10840,10840,10880,10968,10968,11008,11008,11056,11104,-8,-8,-8,-8,-8,10968,11008,10968,10968,10968,10968,10968,11008,11008,11008,11008,11008,11056,-8,-8,-8,-8,-8,-8,-8,-8,-8,-8,-8,-8,-8,-8,-8,-8,-8,-8,-8,-8,-8,-8,-8,-8,-8,-8,32760,32760,32760,32760,32760,32760,32760,32760,32760,32760,32760,32760,32760,32760,32760,32760,32760,32760,32760,32760,32760,32760,32760,32760,32760,32760,32760,32760,32760,32760,32760,32760,32760,32760,32760,32760,32760,32760,32760,32760,32760,32760,32760,32760,32760,32760,32760,32760,32760,32760,32760,32760,32760,32760,32760,32760,32760,32760,32760,32760,32760,32760,32760,32760,32760,32760,32760,32760,32760,32760,32760,32760,32760,32760,32760,32760,32760,32760,32760,32760,32760,32760,32760,32760,32760,32760,32760,32760,32760,32760,32760,32760,32760,32760,32760,32760,32760,32760,32760,32760,32760,32760,32760,32760,32760,32760,32760,32760,32760,32760,32760,32760,32760,32760,32760,32760,32760,32760,32760,32760,32760,32760,32760,32760,32760,32760,32760,32760,32760,32760,32760,32760,32760,32760,32760,32760,32760,32760,32760,32760,32760,32760,32760,32760,32760,32760,32760,32760,32760,32760,32760,32760,32760,32760,32760,-8,-8,-8,-8,-8,-8,-8,-8,-8,-8,-8,-8,-8,-8,-8,-8,-8,-8,-8,-8,-8,-8,-8,-8,-8,-8,-8,-8,-8,-8,-8,-8,-8,32760,32760,32760,32760,32760,32760,32760,32760,32760,32760,32760,-8,-8,-8,-8,-8,-8,-8,32760,32760,32760,32760,32760,32760,32760,32760,32760,32760,32760,-8,-8,-8,-8,-8,-8,-8,-8,-8,-8,-8,-8,-8,-8,-8,-8,-8,-8,-8,-8,-8,-8,-8,-8,-8,-8,-8,-8,-8,-8,-8,-8,-8,-8,-8,-8,-8,-8,-8,-8,-8,-8,-8,-8,-8,-8,-8,-8,-8,-8,-8,-8,-8,-8,-8,-8,-8,-8,-8,-8,-8,-8,-8,-8,-8,-8,-8,-8,-8,-8,-8,-8,-8,-8,-8,-8,-8,-8,-8,-8,-8,-8,-8,-8,-8,-8,-8,-8,-8,-8,-8,-8,-8,-8,-8,-8,-8,-8,-8,-8,-8,-8,-8,-8,-8,-8,-8,-8,-8,-8,-8,-8,-8,-8,-8,-8,-8,-8,-8,-8,-8,-8,-8,-8,-8,-8,-8,-8,-8,-8,-8,-8,-8,-8,-8,-8,-8,-8,-8,-8,-8,-8,-8,-8,-8,-8,-8,-8,-8,-8,-8,-8
9272,9272,9304,9304,9304,9304,9304,9304,9336,9336,9336,9336,9368,9400,9400,9400,9400,-8,-8,-8,-8,-8,-8,-8,-8,-8,-8,-8,-8,-8,-8,-8,-8,-8,-8,-8,-8,-8,-8,-8,-8,-8,-8,-8,30400,30400,30400,30400,30400,30736,30736,30736,31080,31080,31440,31440,31800,31800,31800,31800,31800,31800,31800,31800,31800,31800,31800,9632,9600,9600,9600,9600,9560,9560,9528,9528,9528,9528,9528,9528,9496,9496,9496,9464,9464,9464,9432,9432,9400,9400,9400,9400,9400,9400,9368,9368,8688,8688,8688,8688,8688,8688,8688,8688,8720,8720,8720,8744,8776,8776,8776,-8,9120,9120,9152,9120,9120,9120,9120,9120,9120,9120,9152,9152,9152,9184,9184,9208,9208,9208,9240,9240,9240,9272,9272,9304,9336,9336,9368,9368,9400,9400,9432,9432,9432,9464,9464,9496,9496,9496,9528,9560,9560,9600,9600,9632,9632,9664,9664,9664,9696,9728,9768,9768,9768,9800,9800,9832,9872,9904,9904,9944,9944,9976,10016,10048,10048,10088,10088,10120,10120,10160,10200,10200,10240,10240,10240,10272,10352,10392,10432,10472,10632,10672,10752,10800,10840,10840,10880,10928,10968,11008,11008,11056,11104,-8,-8,-8,-8,-8,-8,11008,10968,10968,10968,10968,10968,11008,11008,10968,11008,11008,11056,-8,-8,-8,-8,-8,-8,-8,-8,-8,-8,-8,-8,-8,-8,-8,-8,-8,-8,-8,-8,-8,-8,-8,-8,32760,32760,32760,32760,32760,32760,32760,32760,32760,32760,32760,32760,32760,32760,32760,32760,32760,32760,32760,32760,32760,32760,32760,32760,32760,32760,32760,32760,32760,32760,32760,32760,32760,32760,32760,32760,32760,32760,32760,32760,32760,32760,32760,32760,32760,32760,32760,32760,32760,32760,32760,32760,32760,32760,32760,32760,32760,32760,32760,32760,32760,32760,32760,32760,32760,32760,32760,32760,32760,32760,32760,32760,32760,32760,32760,32760,32760,32760,32760,32760,32760,32760,32760,32760,32760,32760,32760,32760,32760,32760,32760,32760,32760,32760,32760,32760,32760,32760,32760,32760,32760,32760,32760,32760,32760,32760,32760,32760,32760,32760,32760,32760,32760,32760,32760,32760,32760,32760,32760,32760,32760,32760,32760,32760,32760,32760,32760,32760,32760,32760,32760,32760,32760,32760,32760,32760,32760,32760,32760,32760,32760,32760,32760,32760,32760,32760,32760,32760,32760,32760,32760,32760,32760,32760,32760,32760,32760,-8,-8,-8,-8,-8,-8,-8,-8,-8,-8,-8,-8,-8,-8,-8,-8,-8,-8,-8,-8,-8,-8,-8,-8,-8,-8,-8,-8,-8,-8,-8,-8,32760,32760,32760,32760,32760,32760,32760,32760,32760,32760,-8,-8,-8,-8,-8,-8,-8,-8,-8,-8,32760,32760,32760,32760,32760,32760,32760,32760,32760,-8,-8,-8,-8,-8,-8,-8,-8,-8,-8,-8,-8,-8,-8,-8,-8,-8,-8,-8,-8,-8,-8,-8,-8,-8,-8,-8,-8,-8,-8,-8,-8,-8,-8,-8,-8,-8,-8,-8,-8,-8,-8,-8,-8,-8,-8,-8,-8,-8,-8,-8,-8,-8,-8,-8,-8,-8,-8,-8,-8,-8,-8,-8,-8,-8,-8,-8,-8,-8,-8,-8,-8,-8,-8,-8,-8,-8,-8,-8,-8,-8,-8,-8,-8,-8,-8,-8,-8,-8,-8,-8,-8,-8,-8,-8,-8,-8,-8,-8,-8,-8,-8,-8,-8,-8,-8,-8,-8,-8,-8,-8,-8,-8,-8,-8,-8,-8,-8,-8,-8,-8,-8,-8,-8,-8,-8,-8,-8,-8,-8,-8,-8,-8,-8,-8,-8,-8,-8,-8,-8,-8,-8,-8,-8,-8,-8,-8,-8,-8,-8,-8,-8,-8
