-8,-8,-8,-8,-8,-8,-8,0,0,0,0,0,0,0,0,0,0,0,0,0,0,0,0,0,0,0,0,0,0,0,0,0,0,0,0,0,0,0,0,0,0,0,0,0,0,0,0,0,0,0,0,0,0,0,0,0,0,0,0,0,0,0,0,0,0,0,0,0,0,0,0,0,0,0,0,0,0,0,0,0,0,0,0,0,0,0,0,0,0,0,0,0,0,0,0,0,0,0,0,0,0,0,0,0,0,0,0,0,0,0,0,0,0,0,0,0,0,0,0,0,0,0,0,0,0,0,0,0,0,0,0,0,0,0,0,0,0,0,0,0,0,0,0,0,0,0,0,0,0,0,0,0,0,0,0,0,0,0,0,0,0,0,0,0,0,0,0,0,0,0,0,0,0,0,0,0,0,0,0,0,0,0,0,0,0,0,0,0,0,0,0,0,0,0,0,0,0,0,0,0,0,0,0,0,0,0,0,0,0,0,0,0,0,0,0,0,0,0,0,0,0,0,0,0,0,0,0,0,0,0,0,0,0,0,0,0,0,0,0,0,0,0,0,0,0,0,0,0,0,0,0,0,0,0,0,0,0,0,0,0,0,0,0,0,0,0,0,0,0,0,0,0,0,0,0,0,0,0,0,-8,-8,-8,-8,-8,-8,-8,-8,-8,-8,-8,-8,-8,-8,-8,7592,7592,7568,7568,7568,7528,7528,7512,7512,7488,7464,7448,7424,7424,7424,7408,7408,7384,7368,7352,7352,7352,7328,7312,7328,7352,7328,7328,7328,7312,7328,7312,7312,7288,7288,7272,7272,7256,7256,7256,7256,7232,7232,7232,7232,7232,7232,7232,7232,7232,7232,7232,7232,7232,7232,7232,7232,7232,7232,7216,7216,7216,7216,7216,7216,7216,7216,7216,7216,7216,7216,7216,7216,7216,7216,7216,7232,7232,7232,7232,7256,7256,7256,7272,7272,7272,7288,7288,7288,7312,7312,7312,7312,7328,7328,7328,7328,7352,7352,7368,7384,7384,7424,7424,7448,7448,7464,7464,7488,7512,7528,7552,7552,7568,7592,7616,7616,7656,7656,-8,-8,-8,-8,-8,-8,-8,-8,-8,-8,-8,-8,-8,-8,-8,-8,-8,-8,-8,-8,-8,-8,-8,-8,-8,-8,19472,19472,19472,19608,19472,19608,19608,19608,19752,19608,19608,19608,19608,19608,19608,19608,19608,19752,19608,19608,19608,19752,19752,19608,19608,19472,19472,19472,19472,19472,19472,19472,19472,19472,19472,19608,19608,19608,19608,19608,19608,19608,19608,19472,19472,-8,-8,-8,-8,-8,-8,26344,26344,26344,26344,26344,26096,26096,26096,26096,26096,26096,26096,26096,26096,26096,26096,26096,25848,25848,25848,25848,25848,25848,25848,26096,26096,26096,25848,25848,25848,25848,25848,25848,25848,26096,25848,25848,25608,25608,25608,26096,-8,-8,26344,-8,-8,-8,-8,22480,22480,22480,22480,22672,22672,22672,22672,22480,22480,22304,22120,22120,21944,21944,21776,21608,21608,21440,21440,21440,21440,21272,21272,21112,20952,20952,20952,20792,20792,20792,20792,20640,20336,20480,20336,20040,20184,20040,20040,20040,19896,19896,19896,19608,19472,19472,19472,19336,19200,19200,19072,18936,18936,18560,18560,18560,18560,18560,18560,18432,18432,18312,18192,18072,17952,17952,17952,17720,17608,17608,17496,17496,17496,17392,17280,17064,17064,16960,16960,16960,16856,16760,16760,16656,16552,16456,16456,16456,16456,16456,-8,-8,-8,-8,-8,-8,-8,-8,-8,-8,-8
-8,-8,-8,-8,-8,-8,-8,0,0,0,0,0,0,0,0,0,0,0,0,0,0,0,0,0,0,0,0,0,0,0,0,0,0,0,0,0,0,0,0,0,0,0,0,0,0,0,0,0,0,0,0,0,0,0,0,0,0,0,0,0,0,0,0,0,0,0,0,0,0,0,0,0,0,0,0,0,0,0,0,0,0,0,0,0,0,0,0,0,0,0,0,0,0,0,0,0,0,0,0,0,0,0,0,0,0,0,0,0,0,0,0,0,0,0,0,0,0,0,0,0,0,0,0,0,0,0,0,0,0,0,0,0,0,0,0,0,0,0,0,0,0,0,0,0,0,0,0,0,0,0,0,0,0,0,0,0,0,0,0,0,0,0,0,0,0,0,0,0,0,0,0,0,0,0,0,0,0,0,0,0,0,0,0,0,0,0,0,0,0,0,0,0,0,0,0,0,0,0,0,0,0,0,0,0,0,0,0,0,0,0,0,0,0,0,0,0,0,0,0,0,0,0,0,0,0,0,0,0,0,0,0,0,0,0,0,0,0,0,0,0,0,0,0,0,0,0,0,0,0,0,0,0,0,0,0,0,0,0,0,0,0,0,0,0,0,0,0,0,0,0,0,0,0,0,0,0,0,0,-8,-8,-8,-8,-8,-8,-8,-8,-8,-8,-8,-8,-8,-8,-8,-8,7616,7592,7592,7592,7568,7552,7528,7528,7512,7488,7464,7464,7448,7448,7424,7424,7408,7408,7408,7368,7352,7352,7328,7328,7328,7352,7352,7352,7352,7352,7352,7328,7328,7312,7312,7288,7288,7272,7272,7272,7272,7256,7256,7256,7256,7232,7232,7232,7232,7232,7232,7232,7232,7232,7232,7232,7232,7232,7232,7232,7232,7232,7216,7216,7216,7216,7216,7216,7216,7216,7216,7232,7232,7216,7232,7232,7232,7256,7256,7256,7272,7272,7272,7272,7288,7288,7288,7288,7312,7312,7312,7328,7328,7328,7328,7328,7352,7352,7368,7384,7384,7408,7424,7424,7448,7464,7464,7488,7512,7528,7528,7552,7552,7592,7616,7632,7656,7672,7672,7696,-8,-8,-8,-8,-8,-8,-8,-8,-8,-8,-8,-8,-8,-8,-8,-8,-8,-8,-8,-8,-8,-8,-8,-8,-8,19472,19472,19472,19608,19608,19608,19608,19608,19752,19752,19752,19608,19608,19608,19608,19608,19752,19752,19752,19752,19752,19752,19752,19752,19608,19608,19608,19472,19608,19472,19472,19472,19472,19472,19608,19608,19608,19608,19608,19608,19608,19752,19752,19608,-8,-8,-8,-8,-8,-8,26096,26096,26096,26344,26096,26096,26096,26096,26096,26096,26096,25848,25848,25848,26096,26096,26096,25848,25848,25848,25848,25848,25848,25848,25848,25848,25848,25848,25848,25848,25848,25848,25848,25848,25848,25848,25848,25608,25608,25608,25608,25848,-8,-8,-8,-8,-8,-8,22304,22480,22480,22480,22480,22672,22672,22672,22672,22480,22480,22304,22120,21944,21944,21944,21776,21608,21776,21608,21608,21608,21440,21440,21272,21272,21112,20952,20792,20792,20792,20792,20640,20640,20480,20480,20336,20184,20184,20040,20040,20040,19896,19896,19752,19752,19472,19472,19472,19472,19200,19200,19072,18936,18808,18560,18560,18560,18560,18560,18560,18432,18432,18312,18192,18072,18072,17952,17952,17840,17608,17496,17496,17496,17496,17392,17280,17176,17064,16960,16960,16856,16760,16760,16760,16656,16552,16456,16456,16456,16456,-8,-8,-8,-8,-8,-8,-8,-8,-8,-8,-8,-8
-8,-8,-8,-8,-8,-8,-8,-8,-8,0,0,0,0,0,0,0,0,0,0,0,0,0,0,0,0,0,0,0,0,0,0,0,0,0,0,0,0,0,0,0,0,0,0,0,0,0,0,0,0,0,0,0,0,0,0,0,0,0,0,0,0,0,0,0,0,0,0,0,0,0,0,0,0,0,0,0,0,0,0,0,0,0,0,0,0,0,0,0,0,0,0,0,0,0,0,0,0,0,0,0,0,0,0,0,0,0,0,0,0,0,0,0,0,0,0,0,0,0,0,0,0,0,0,0,0,0,0,0,0,0,0,0,0,0,0,0,0,0,0,0,0,0,0,0,0,0,0,0,0,0,0,0,0,0,0,0,0,0,0,0,0,0,0,0,0,0,0,0,0,0,0,0,0,0,0,0,0,0,0,0,0,0,0,0,0,0,0,0,0,0,0,0,0,0,0,0,0,0,0,0,0,0,0,0,0,0,0,0,0,0,0,0,0,0,0,0,0,0,0,0,0,0,0,0,0,0,0,0,0,0,0,0,0,0,0,0,0,0,0,0,0,0,0,0,0,0,0,0,0,0,0,0,0,0,0,0,0,0,0,0,0,0,0,0,0,0,0,0,0,0,0,0,0,0,0,0,-8,-8,-8,-8,-8,-8,-8,-8,-8,-8,-8,-8,-8,-8,-8,-8,-8,-8,-8,-8,7592,7592,7592,7552,7552,7528,7512,7512,7488,7464,7464,7464,7448,7424,7424,7424,7408,7368,7368,7368,7368,7352,7352,7368,7368,7368,7368,7352,7352,7328,7328,7312,7312,7288,7288,7288,7288,7272,7272,7272,7256,7256,7256,7256,7256,7256,7256,7256,7256,7256,7256,7256,7256,7256,7232,7232,7232,7232,7232,7232,7232,7232,7232,7232,7232,7232,7232,7232,7232,7232,7232,7232,7256,7256,7256,7272,7288,7288,7288,7288,7288,7288,7288,7288,7312,7312,7312,7312,7328,7328,7328,7328,7352,7328,7352,7368,7368,7384,7408,7424,7448,7448,7448,7464,7464,7488,7528,7528,7552,7568,7568,7616,7632,7656,7696,7696,7696,7696,-8,-8,-8,-8,-8,-8,-8,-8,-8,-8,-8,-8,-8,-8,-8,-8,-8,-8,-8,-8,-8,-8,-8,-8,-8,19608,19472,19608,19608,19608,19608,19752,19752,19752,19752,19752,19752,19752,19608,19608,19752,19752,19752,19752,19752,19752,19752,19752,19752,19608,19608,19608,19608,19608,19608,19608,19472,19608,19608,19608,19608,19608,19608,19608,19752,19752,19896,19896,-8,-8,-8,-8,-8,-8,-8,-8,26096,26096,26096,26096,26096,26096,26096,26096,26096,26096,25848,25848,25848,26096,26096,26096,25848,25848,25848,25848,25608,25608,25608,25608,25608,25848,25848,25848,25848,25848,25848,25848,25848,25848,25848,25848,25608,25144,25144,25608,25608,-8,-8,-8,-8,-8,-8,22672,22672,22672,22672,22672,22672,22672,22672,22672,22672,22480,22304,22120,21944,21944,21944,21776,21776,21776,21776,21776,21608,21440,21272,21272,21112,20952,20792,20792,20792,20792,20792,20792,20640,20480,20480,20336,20184,20184,20040,20040,19896,19896,19896,19752,19608,19608,19472,19472,19472,19200,19200,19072,19072,18936,18680,18680,18560,18560,18560,18560,18432,18432,18312,18192,17952,18072,17952,17952,17720,17608,17496,17496,17392,17392,17280,17176,17176,17064,17064,17064,16960,16856,16760,16760,16552,16552,16456,16456,16360,16360,16360,-8,-8,-8,-8,-8,-8,-8,-8,-8,-8,-8
-8,-8,-8,-8,-8,-8,-8,-8,-8,0,0,0,0,0,0,0,0,0,0,0,0,0,0,0,0,0,0,0,0,0,0,0,0,0,0,0,0,0,0,0,0,0,0,0,0,0,0,0,0,0,0,0,0,0,0,0,0,0,0,0,0,0,0,0,0,0,0,0,0,0,0,0,0,0,0,0,0,0,0,0,0,0,0,0,0,0,0,0,0,0,0,0,0,0,0,0,0,0,0,0,0,0,0,0,0,0,0,0,0,0,0,0,0,0,0,0,0,0,0,0,0,0,0,0,0,0,0,0,0,0,0,0,0,0,0,0,0,0,0,0,0,0,0,0,0,0,0,0,0,0,0,0,0,0,0,0,0,0,0,0,0,0,0,0,0,0,0,0,0,0,0,0,0,0,0,0,0,0,0,0,0,0,0,0,0,0,0,0,0,0,0,0,0,0,0,0,0,0,0,0,0,0,0,0,0,0,0,0,0,0,0,0,0,0,0,0,0,0,0,0,0,0,0,0,0,0,0,0,0,0,0,0,0,0,0,0,0,0,0,0,0,0,0,0,0,0,0,0,0,0,0,0,0,0,0,0,0,0,0,0,0,0,0,0,0,0,0,0,0,0,0,0,0,0,0,0,0,-8,-8,-8,-8,-8,-8,-8,-8,-8,-8,-8,-8,-8,-8,-8,-8,-8,-8,-8,7616,7592,7592,7568,7568,7552,7528,7512,7512,7488,7488,7488,7448,7448,7424,7424,7424,7384,7384,7368,7368,7368,7368,7368,7368,7368,7368,7352,7352,7328,7328,7312,7312,7288,7288,7288,7288,7272,7272,7272,7256,7272,7256,7256,7272,7256,7256,7272,7272,7272,7272,7272,7256,7256,7256,7256,7256,7256,7256,7256,7232,7256,7256,7256,7256,7256,7256,7232,7232,7232,7256,7256,7256,7272,7272,7288,7288,7288,7312,7312,7312,7312,7312,7312,7312,7328,7328,7328,7352,7352,7352,7352,7352,7352,7368,7368,7384,7408,7424,7424,7448,7448,7464,7464,7488,7512,7528,7552,7552,7568,7592,7616,7632,7672,7696,7696,7696,7696,-8,-8,-8,-8,-8,-8,-8,-8,-8,-8,-8,-8,-8,-8,-8,-8,-8,-8,-8,-8,-8,-8,-8,-8,19752,19608,19608,19608,19752,19752,19752,19752,19752,19752,19752,19752,19752,19752,19608,19608,19752,19752,19752,19752,19752,19752,19752,19752,19752,19752,19752,19752,19608,19752,19608,19608,19608,19608,19608,19608,19752,19752,19752,19752,19752,19896,19896,20040,-8,-8,-8,-8,-8,-8,-8,-8,-8,26096,26096,26096,26096,26096,25848,25848,25848,25848,25848,25848,25848,25848,26096,25848,25848,25608,25608,25608,25376,25376,25608,25608,25608,25848,25848,25848,25848,25848,25848,25848,25848,25848,25848,25848,25144,25144,25144,25608,25608,-8,-8,-8,-8,-8,-8,22672,22672,22672,22672,22672,22672,22672,22672,22672,22480,22480,22304,22120,21944,21944,21944,21944,21776,21944,21776,21776,21440,21440,21272,21272,21112,20952,20952,20792,20792,20792,20792,20640,20480,20480,20336,20336,20184,20184,20184,20040,19896,19896,19896,19608,19608,19472,19608,19472,19472,19336,19200,19072,19072,18936,18808,18680,18560,18560,18560,18560,18432,18312,18312,18192,18072,18072,17952,17952,17840,17608,17608,17496,17392,17392,17280,17176,17176,17176,17064,17064,16960,16856,16760,16656,16552,16456,16456,16360,16360,16360,16360,-8,-8,-8,-8,-8,-8,-8,-8,-8,-8,-8
-8,-8,-8,-8,-8,-8,-8,0,0,0,0,0,0,0,0,0,0,0,0,0,0,0,0,0,0,0,0,0,0,0,0,0,0,0,0,0,0,0,0,0,0,0,0,0,0,0,0,0,0,0,0,0,0,0,0,0,0,0,0,0,0,0,0,0,0,0,0,0,0,0,0,0,0,0,0,0,0,0,0,0,0,0,0,0,0,0,0,0,0,0,0,0,0,0,0,0,0,0,0,0,0,0,0,0,0,0,0,0,0,0,0,0,0,0,0,0,0,0,0,0,0,0,0,0,0,0,0,0,0,0,0,0,0,0,0,0,0,0,0,0,0,0,0,0,0,0,0,0,0,0,0,0,0,0,0,0,0,0,0,0,0,0,0,0,0,0,0,0,0,0,0,0,0,0,0,0,0,0,0,0,0,0,0,0,0,0,0,0,0,0,0,0,0,0,0,0,0,0,0,0,0,0,0,0,0,0,0,0,0,0,0,0,0,0,0,0,0,0,0,0,0,0,0,0,0,0,0,0,0,0,0,0,0,0,0,0,0,0,0,0,0,0,0,0,0,0,0,0,0,0,0,0,0,0,0,0,0,0,0,0,0,0,0,0,0,0,0,0,0,0,0,0,0,0,0,0,0,-8,-8,-8,-8,-8,-8,-8,-8,-8,-8,-8,-8,-8,-8,-8,-8,-8,-8,-8,-8,7592,7592,7568,7568,7552,7528,7512,7512,7512,7488,7488,7464,7448,7424,7424,7424,7408,7384,7384,7384,7368,7368,7384,7368,7384,7368,7368,7368,7352,7328,7328,7312,7312,7312,7288,7288,7288,7288,7272,7272,7272,7272,7272,7272,7272,7272,7272,7288,7288,7272,7272,7272,7272,7272,7256,7256,7256,7256,7256,7256,7256,7256,7272,7256,7256,7272,7256,7256,7256,7272,7272,7272,7288,7288,7288,7288,7288,7312,7312,7312,7312,7312,7312,7328,7328,7352,7352,7352,7352,7352,7352,7368,7368,7368,7384,7408,7424,7424,7448,7448,7464,7464,7464,7488,7512,7552,7552,7568,7592,7616,7632,7656,7696,7720,7720,7720,7720,-8,-8,-8,-8,-8,-8,-8,-8,-8,-8,-8,-8,-8,-8,-8,-8,-8,-8,-8,-8,-8,-8,-8,19752,19752,19608,19608,19608,19752,19752,19752,19752,19752,19896,19896,19752,19752,19752,19608,19608,19608,19608,19608,19752,19752,19752,19752,19752,19752,19752,19752,19752,19752,19752,19608,19608,19608,19608,19752,19608,19752,19752,19752,19752,19752,19896,19896,20040,20040,-8,-8,-8,-8,-8,-8,-8,-8,-8,-8,26096,26096,26096,25848,25848,25848,25848,25848,25848,25848,25848,25848,25608,25608,25376,25608,25608,25376,25376,25608,25376,25608,25848,25848,25848,25848,25848,25848,25848,25848,25848,25848,25848,25608,25376,24920,25608,25608,-8,-8,-8,-8,-8,-8,22672,22672,22672,22672,22672,22672,22672,22672,22672,22480,22304,22120,22120,21944,21944,21944,21944,21776,21944,21776,21776,21608,21440,21440,21272,21272,21272,21112,20952,20952,20792,20792,20640,20480,20480,20336,20184,20184,20184,20184,20040,19896,19896,19896,19608,19608,19472,19472,19336,19336,19200,19072,19072,19072,18936,18808,18680,18560,18560,18560,18432,18312,18312,18192,18072,18072,17952,17952,17952,17840,17608,17608,17392,17280,17392,17280,17176,17176,17176,17064,17064,16856,16760,16656,16656,16456,16456,16360,16360,16360,12680,12624,12624,12568,12504,12504,12504,12504,12448,12448,12448,12448,-8
-8,-8,-8,-8,-8,-8,-8,0,0,0,0,0,0,0,0,0,0,0,0,0,0,0,0,0,0,0,0,0,0,0,0,0,0,0,0,0,0,0,0,0,0,0,0,0,0,0,0,0,0,0,0,0,0,0,0,0,0,0,0,0,0,0,0,0,0,0,0,0,0,0,0,0,0,0,0,0,0,0,0,0,0,0,0,0,0,0,0,0,0,0,0,0,0,0,0,0,0,0,0,0,0,0,0,0,0,0,0,0,0,0,0,0,0,0,0,0,0,0,0,0,0,0,0,0,0,0,0,0,0,0,0,0,0,0,0,0,0,0,0,0,0,0,0,0,0,0,0,0,0,0,0,0,0,0,0,0,0,0,0,0,0,0,0,0,0,0,0,0,0,0,0,0,0,0,0,0,0,0,0,0,0,0,0,0,0,0,0,0,0,0,0,0,0,0,0,0,0,0,0,0,0,0,0,0,0,0,0,0,0,0,0,0,0,0,0,0,0,0,0,0,0,0,0,0,0,0,0,0,0,0,0,0,0,0,0,0,0,0,0,0,0,0,0,0,0,0,0,0,0,0,0,0,0,0,0,0,0,0,0,0,0,0,0,0,0,0,0,0,0,0,0,0,0,0,0,0,0,0,0,0,0,0,0,-8,-8,-8,-8,-8,-8,-8,-8,-8,-8,-8,-8,-8,7616,7592,7616,7568,7592,7552,7552,7528,7512,7512,7512,7512,7488,7464,7448,7448,7424,7408,7408,7384,7384,7384,7368,7384,7384,7384,7368,7368,7368,7368,7352,7352,7328,7312,7312,7288,7288,7288,7288,7288,7288,7288,7288,7288,7288,7288,7288,7288,7288,7288,7288,7288,7288,7272,7272,7272,7272,7272,7272,7272,7272,7272,7272,7272,7272,7272,7272,7272,7272,7272,7272,7272,7288,7312,7312,7312,7312,7312,7312,7312,7312,7312,7328,7328,7328,7352,7352,7368,7368,7368,7368,7368,7368,7368,7384,7384,7424,7424,7448,7448,7464,7464,7464,7488,7512,7528,7552,7568,7592,7616,7632,7656,7672,7696,7720,7744,7744,7744,-8,-8,-8,-8,-8,-8,-8,-8,-8,-8,-8,-8,-8,-8,-8,-8,-8,-8,-8,-8,-8,-8,-8,19752,19752,19608,19608,19608,19752,19752,19752,19752,19752,19896,19896,19896,19752,19752,19752,19752,19752,19608,19752,19752,19752,19752,19752,19752,19752,19752,19752,19752,19752,19752,19608,19608,19608,19608,19752,19752,19752,19752,19752,19752,19752,19896,19896,20040,-8,-8,-8,-8,-8,-8,-8,-8,-8,-8,-8,-8,25848,25848,25848,25848,25848,25848,25848,25848,25608,25608,25608,25608,25376,25376,25376,25376,25144,25376,25376,25376,25376,25608,25608,25608,25848,25848,25848,25848,25848,25848,25848,25848,25608,25376,25376,25376,25376,25144,-8,-8,25376,-8,-8,-8,22672,22672,22672,22672,22672,22672,22672,22480,22480,22304,22304,22304,22120,21944,21944,21944,21776,21944,21776,21776,21608,21440,21440,21440,21440,21272,21112,20952,20792,20640,20640,20640,20480,20480,20480,20336,20184,20184,20184,20040,19896,19896,19752,19752,19608,19472,19472,19336,19336,19200,19072,19072,19072,18936,18808,18680,18680,18560,18560,18560,18312,18312,18192,18192,18072,18072,17952,17952,17840,17608,17608,17496,17392,17392,17392,17280,17176,17176,17064,17064,16856,16760,16656,16656,16552,16456,16456,16360,16360,12680,12624,12624,12568,12504,12504,12504,12504,12448,12448,12448,12448,-8
-8,-8,-8,-8,-8,-8,-8,0,0,0,0,0,0,0,0,0,0,0,0,0,0,0,0,0,0,0,0,0,0,0,0,0,0,0,0,0,0,0,0,0,0,0,0,0,0,0,0,0,0,0,0,0,0,0,0,0,0,0,0,0,0,0,0,0,0,0,0,0,0,0,0,0,0,0,0,0,0,0,0,0,0,0,0,0,0,0,0,0,0,0,0,0,0,0,0,0,0,0,0,0,0,0,0,0,0,0,0,0,0,0,0,0,0,0,0,0,0,0,0,0,0,0,0,0,0,0,0,0,0,0,0,0,0,0,0,0,0,0,0,0,0,0,0,0,0,0,0,0,0,0,0,0,0,0,0,0,0,0,0,0,0,0,0,0,0,0,0,0,0,0,0,0,0,0,0,0,0,0,0,0,0,0,0,0,0,0,0,0,0,0,0,0,0,0,0,0,0,0,0,0,0,0,0,0,0,0,0,0,0,0,0,0,0,0,0,0,0,0,0,0,0,0,0,0,0,0,0,0,0,0,0,0,0,0,0,0,0,0,0,0,0,0,0,0,0,0,0,0,0,0,0,0,0,0,0,0,0,0,0,0,0,0,0,0,0,0,0,0,0,0,0,0,0,0,0,0,0,0,0,0,0,0,0,0,-8,-8,-8,-8,-8,-8,-8,-8,-8,-8,-8,-8,-8,7592,7616,7592,7592,7568,7552,7528,7528,7512,7512,7512,7488,7464,7464,7448,7448,7424,7424,7408,7408,7384,7384,7384,7384,7384,7384,7368,7368,7368,7352,7352,7328,7312,7312,7312,7312,7288,7312,7288,7288,7288,7288,7288,7288,7288,7288,7288,7288,7288,7288,7288,7288,7288,7288,7272,7288,7288,7288,7288,7288,7288,7288,7288,7288,7288,7288,7288,7288,7288,7288,7288,7312,7312,7312,7312,7312,7312,7328,7328,7328,7328,7328,7328,7352,7352,7368,7368,7368,7368,7368,7368,7368,7384,7408,7424,7448,7448,7448,7464,7464,7464,7488,7512,7528,7552,7568,7568,7616,7616,7632,7656,7672,7696,7720,7744,7744,7760,-8,-8,-8,-8,-8,-8,-8,-8,-8,-8,-8,-8,-8,-8,-8,-8,-8,-8,-8,-8,-8,-8,-8,-8,19752,19608,19752,19752,19752,19752,19896,19896,19896,19896,19896,19896,19896,19896,19752,19752,19752,19752,19752,19752,19752,19752,19896,19896,19896,19896,19752,19752,19752,19752,19752,19752,19752,19752,19752,19752,19752,19752,19896,19752,19896,19896,19896,20040,-8,-8,-8,-8,-8,-8,-8,-8,-8,-8,-8,-8,25608,25848,25848,25848,25848,25848,25848,25848,25376,25376,25376,25144,25144,25144,25144,25144,25144,25144,25144,25144,25376,25376,25376,25376,25608,25608,25848,25848,25848,25848,25848,25608,25376,25144,25144,25144,25144,25144,25144,25144,25376,25376,-8,22856,22856,22672,22672,22672,22672,22672,22672,22480,22480,22480,22304,22304,22120,21944,21944,21944,21776,21944,21776,21608,21608,21608,21440,21440,21440,21440,21272,20952,20952,20792,20792,20640,20480,20480,20336,20336,20184,20184,20040,20040,19896,19896,19896,19752,19608,19472,19472,19336,19200,19072,19072,19072,18936,18936,18808,18680,18680,18680,18560,18560,18312,18312,18192,18072,18072,18072,17952,17952,17840,17608,17608,17496,17392,17392,17392,17176,17176,17176,17064,16960,16856,16760,16656,16656,16456,16456,16360,16360,16264,12624,12624,12568,12504,12504,12448,12448,12448,12448,12448,12448,12448,-8
-8,-8,-8,-8,-8,-8,-8,0,0,0,0,0,0,0,0,0,0,0,0,0,0,0,0,0,0,0,0,0,0,0,0,0,0,0,0,0,0,0,0,0,0,0,0,0,0,0,0,0,0,0,0,0,0,0,0,0,0,0,0,0,0,0,0,0,0,0,0,0,0,0,0,0,0,0,0,0,0,0,0,0,0,0,0,0,0,0,0,0,0,0,0,0,0,0,0,0,0,0,0,0,0,0,0,0,0,0,0,0,0,0,0,0,0,0,0,0,0,0,0,0,0,0,0,0,0,0,0,0,0,0,0,0,0,0,0,0,0,0,0,0,0,0,0,0,0,0,0,0,0,0,0,0,0,0,0,0,0,0,0,0,0,0,0,0,0,0,0,0,0,0,0,0,0,0,0,0,0,0,0,0,0,0,0,0,0,0,0,0,0,0,0,0,0,0,0,0,0,0,0,0,0,0,0,0,0,0,0,0,0,0,0,0,0,0,0,0,0,0,0,0,0,0,0,0,0,0,0,0,0,0,0,0,0,0,0,0,0,0,0,0,0,0,0,0,0,0,0,0,0,0,0,0,0,0,0,0,0,0,0,0,0,0,0,0,0,0,0,0,0,0,0,0,0,0,0,0,0,0,0,0,0,0,0,0,-8,-8,-8,-8,-8,-8,-8,-8,-8,-8,-8,-8,-8,7592,7616,7592,7592,7568,7552,7552,7528,7528,7512,7512,7512,7488,7464,7464,7464,7448,7424,7424,7424,7408,7384,7384,7384,7384,7384,7384,7368,7368,7368,7368,7352,7328,7328,7312,7312,7312,7312,7312,7288,7312,7312,7312,7312,7312,7288,7312,7312,7312,7312,7312,7312,7288,7312,7288,7288,7288,7288,7288,7288,7288,7288,7312,7288,7288,7288,7288,7288,7288,7288,7288,7312,7312,7328,7328,7328,7328,7328,7328,7352,7352,7352,7352,7352,7368,7368,7368,7368,7368,7368,7384,7384,7384,7408,7424,7448,7448,7464,7464,7488,7488,7512,7512,7528,7552,7568,7592,7616,7632,7672,7672,7696,7720,7744,7744,7744,-8,-8,-8,-8,-8,-8,-8,-8,-8,-8,-8,-8,-8,-8,-8,-8,-8,-8,-8,-8,-8,-8,-8,-8,-8,19752,19608,19752,19752,19752,19752,19896,19896,19896,19896,19896,19896,19896,19896,19896,19896,19896,19752,19896,19896,19896,19752,19896,19896,19896,19896,19896,19896,19752,19896,19752,19896,19896,19896,19896,19896,19896,19896,19896,19896,19896,19896,19896,19896,-8,-8,-8,-8,-8,-8,-8,-8,-8,-8,-8,-8,-8,25848,25848,25848,25848,25608,25608,25376,25376,25376,25144,25144,25144,25144,25144,25144,25144,25144,25144,25144,25376,25376,25376,25608,25848,25848,25848,25848,25848,25848,25848,25608,25376,25144,25144,25144,25144,25144,25144,25144,25144,25144,25144,24920,22856,22856,22672,22672,22672,22672,22672,22480,22480,22304,22304,22304,22120,21944,21944,21776,21776,21776,21776,21776,21608,21608,21440,21440,21440,21440,21272,20952,20952,20792,20792,20792,20640,20480,20480,20336,20184,20184,20040,20040,20040,19896,19752,19608,19608,19472,19472,19336,19336,19200,19200,19072,19072,18936,18936,18808,18680,18808,18680,18560,18560,18312,18312,18192,18072,18072,17952,17952,17840,17608,17720,17496,17392,17392,17392,17280,17176,17176,17176,17064,16856,16856,16760,16656,16456,16456,16360,16360,16264,12680,12624,12624,12568,12568,12504,12504,12504,12504,12504,12504,12504,-8
-8,-8,-8,-8,-8,-8,-8,0,0,0,0,0,0,0,0,0,0,0,0,0,0,0,0,0,0,0,0,0,0,0,0,0,0,0,0,0,0,0,0,0,0,0,0,0,0,0,0,0,0,0,0,0,0,0,0,0,0,0,0,0,0,0,0,0,0,0,0,0,0,0,0,0,0,0,0,0,0,0,0,0,0,0,0,0,0,0,0,0,0,0,0,0,0,0,0,0,0,0,0,0,0,0,0,0,0,0,0,0,0,0,0,0,0,0,0,0,0,0,0,0,0,0,0,0,0,0,0,0,0,0,0,0,0,0,0,0,0,0,0,0,0,0,0,0,0,0,0,0,0,0,0,0,0,0,0,0,0,0,0,0,0,0,0,0,0,0,0,0,0,0,0,0,0,0,0,0,0,0,0,0,0,0,0,0,0,0,0,0,0,0,0,0,0,0,0,0,0,0,0,0,0,0,0,0,0,0,0,0,0,0,0,0,0,0,0,0,0,0,0,0,0,0,0,0,0,0,0,0,0,0,0,0,0,0,0,0,0,0,0,0,0,0,0,0,0,0,0,0,0,0,0,0,0,0,0,0,0,0,0,0,0,0,0,0,0,0,0,0,0,0,0,0,0,0,0,0,0,0,0,0,0,0,0,0,0,-8,-8,-8,-8,-8,-8,-8,-8,-8,-8,-8,-8,-8,7616,7616,7592,7592,7568,7552,7528,7528,7528,7512,7512,7488,7488,7488,7464,7448,7448,7424,7424,7408,7384,7408,7384,7384,7384,7384,7368,7368,7368,7368,7352,7352,7328,7328,7312,7312,7328,7312,7312,7312,7312,7312,7312,7312,7312,7312,7312,7312,7312,7312,7312,7312,7312,7312,7312,7312,7288,7312,7312,7312,7312,7312,7312,7312,7312,7312,7312,7312,7312,7312,7312,7328,7328,7328,7328,7328,7352,7352,7352,7352,7352,7368,7368,7368,7368,7368,7384,7384,7384,7384,7384,7408,7408,7424,7448,7464,7464,7464,7488,7512,7528,7528,7552,7568,7592,7592,7632,7656,7672,7696,7720,7720,7744,7760,7760,-8,-8,-8,-8,-8,-8,-8,-8,-8,-8,-8,-8,-8,-8,-8,-8,-8,-8,-8,-8,-8,-8,-8,-8,19472,19608,19608,19752,19752,19752,19896,19896,19896,19896,19896,19896,19896,19896,19896,19896,19896,19896,19896,19896,19896,19896,19752,19896,19896,19896,19896,19896,19896,19896,19896,19896,19896,19896,19896,19896,19896,19896,19896,19896,19896,19896,19896,19896,19896,-8,-8,-8,-8,-8,-8,-8,-8,-8,-8,-8,-8,-8,-8,-8,-8,-8,24920,24920,-8,25144,25144,25144,25144,24920,25144,25144,25144,25144,25144,25144,25144,25376,25376,25608,25608,25848,25848,26096,25848,-8,-8,25848,-8,25144,25144,24920,24920,24920,24920,24920,24920,25144,25144,24920,25144,24264,22856,22856,22672,22672,22672,22672,22480,22480,22304,22304,22304,21944,21944,21944,21944,21776,21776,21776,21776,21608,21440,21440,21440,21440,21440,21440,21112,20952,20792,20792,20792,20640,20640,20480,20336,20184,20184,20040,20040,19896,19896,19752,19608,19472,19472,19472,19336,19336,19200,19200,19200,19072,18936,18936,18808,18808,18808,18808,18680,18680,18432,18312,18192,18072,18072,17952,17952,17952,17720,17720,17608,17496,17392,17392,17280,17280,17176,17176,17064,16856,16760,16760,16656,16552,16456,16360,16264,12680,12680,12624,12680,12624,12624,12568,12568,12568,12568,12568,12568,12568,-8
-8,-8,-8,-8,-8,-8,-8,0,0,0,0,0,0,0,0,0,0,0,0,0,0,0,0,0,0,0,0,0,0,0,0,0,0,0,0,0,0,0,0,0,0,0,0,0,0,0,0,0,0,0,0,0,0,0,0,0,0,0,0,0,0,0,0,0,0,0,0,0,0,0,0,0,0,0,0,0,0,0,0,0,0,0,0,0,0,0,0,0,0,0,0,0,0,0,0,0,0,0,0,0,0,0,0,0,0,0,0,0,0,0,0,0,0,0,0,0,0,0,0,0,0,0,0,0,0,0,0,0,0,0,0,0,0,0,0,0,0,0,0,0,0,0,0,0,0,0,0,0,0,0,0,0,0,0,0,0,0,0,0,0,0,0,0,0,0,0,0,0,0,0,0,0,0,0,0,0,0,0,0,0,0,0,0,0,0,0,0,0,0,0,0,0,0,0,0,0,0,0,0,0,0,0,0,0,0,0,0,0,0,0,0,0,0,0,0,0,0,0,0,0,0,0,0,0,0,0,0,0,0,0,0,0,0,0,0,0,0,0,0,0,0,0,0,0,0,0,0,0,0,0,0,0,0,0,0,0,0,0,0,0,0,0,0,0,0,0,0,0,0,0,0,0,0,0,0,0,0,0,0,0,0,0,0,0,0,-8,-8,-8,-8,-8,-8,-8,-8,-8,-8,-8,-8,-8,7616,7592,7592,7592,7568,7552,7552,7528,7528,7528,7512,7512,7488,7488,7464,7448,7448,7448,7424,7424,7384,7408,7408,7408,7384,7384,7384,7384,7368,7368,7368,7352,7352,7328,7328,7328,7328,7328,7328,7328,7328,7328,7328,7312,7312,7312,7312,7312,7328,7312,7312,7312,7312,7312,7312,7312,7288,7312,7312,7312,7312,7312,7312,7312,7312,7312,7328,7328,7328,7312,7328,7328,7352,7352,7352,7352,7352,7368,7368,7368,7368,7368,7368,7368,7384,7384,7384,7384,7384,7384,7408,7408,7424,7448,7464,7464,7464,7488,7512,7528,7528,7552,7568,7568,7616,7616,7632,7656,7696,7720,7720,7720,7744,7760,7760,-8,-8,-8,-8,-8,-8,-8,-8,-8,-8,-8,-8,-8,-8,-8,-8,-8,-8,-8,-8,-8,-8,-8,-8,19472,19608,19608,19752,19752,19752,19896,19896,19896,19896,19896,19896,19896,19896,19896,19896,19896,19896,19896,19896,19896,19896,19896,19896,19896,19896,19896,19896,19896,19896,19896,19896,19896,19896,19896,19896,19896,19896,19896,19896,19896,19896,19896,19896,19896,-8,-8,-8,-8,-8,-8,-8,-8,-8,-8,-8,-8,-8,-8,-8,-8,-8,24920,24920,25144,24920,24920,24920,24920,24920,24920,24920,24920,25144,25144,25144,25144,25376,25376,25608,25608,-8,-8,-8,-8,-8,-8,-8,-8,-8,25144,25144,24920,24920,24920,24920,24920,25144,25144,25144,24920,24696,22856,22856,22672,22672,22672,22672,22480,22480,22304,22304,22304,21944,22120,21944,21944,21776,21776,21776,21776,21608,21440,21440,21440,21440,21440,21440,21272,20952,20952,20952,20792,20640,20640,20640,20480,20184,20184,20040,19896,19896,19608,19608,19472,19472,19336,19336,19336,19336,19200,19200,19200,19072,19072,18936,18808,18808,18808,18808,18680,18680,18432,18312,18192,18072,18072,18072,17952,17952,17840,17952,17720,17496,17496,17392,17392,17280,17176,17176,17064,16960,16760,16760,16656,16552,16456,16360,12680,12680,12736,12736,12680,12680,12680,12624,12624,12568,12568,12568,12568,12504,-8
-8,-8,-8,-8,-8,-8,-8,0,0,0,0,0,0,0,0,0,0,0,0,0,0,0,0,0,0,0,0,0,0,0,0,0,0,0,0,0,0,0,0,0,0,0,0,0,0,0,0,0,0,0,0,0,0,0,0,0,0,0,0,0,0,0,0,0,0,0,0,0,0,0,0,0,0,0,0,0,0,0,0,0,0,0,0,0,0,0,0,0,0,0,0,0,0,0,0,0,0,0,0,0,0,0,0,0,0,0,0,0,0,0,0,0,0,0,0,0,0,0,0,0,0,0,0,0,0,0,0,0,0,0,0,0,0,0,0,0,0,0,0,0,0,0,0,0,0,0,0,0,0,0,0,0,0,0,0,0,0,0,0,0,0,0,0,0,0,0,0,0,0,0,0,0,0,0,0,0,0,0,0,0,0,0,0,0,0,0,0,0,0,0,0,0,0,0,0,0,0,0,0,0,0,0,0,0,0,0,0,0,0,0,0,0,0,0,0,0,0,0,0,0,0,0,0,0,0,0,0,0,0,0,0,0,0,0,0,0,0,0,0,0,0,0,0,0,0,0,0,0,0,0,0,0,0,0,0,0,0,0,0,0,0,0,0,0,0,0,0,0,0,0,0,0,0,0,0,0,0,0,0,0,0,0,0,0,0,-8,-8,-8,-8,-8,-8,-8,-8,-8,-8,-8,-8,-8,-8,7592,7592,7568,7568,7568,7552,7528,7528,7528,7512,7512,7488,7488,7488,7464,7464,7448,7448,7424,7408,7424,7408,7408,7408,7384,7384,7384,7384,7368,7368,7368,7368,7352,7352,7352,7352,7352,7352,7352,7352,7352,7328,7328,7328,7328,7328,7328,7328,7328,7312,7312,7312,7312,7312,7312,7312,7312,7312,7312,7312,7312,7328,7312,7328,7328,7328,7352,7352,7328,7328,7352,7352,7352,7352,7352,7368,7368,7368,7368,7368,7368,7384,7384,7384,7384,7384,7408,7408,7408,7424,7424,7448,7464,7464,7488,7488,7488,7512,7528,7552,7552,7568,7568,7616,7632,7656,7672,7696,7720,7720,7744,7760,7784,7784,-8,-8,-8,-8,-8,-8,-8,-8,-8,-8,-8,-8,-8,-8,-8,-8,-8,-8,-8,-8,-8,-8,-8,-8,19472,19608,19608,19752,19752,19752,19896,19896,19752,19752,19752,19896,19896,19896,19896,19896,19896,19896,19896,19896,19896,19896,19896,19896,19896,19896,19896,19896,19896,19752,19896,19896,19896,19896,19896,19896,19896,19896,19896,19896,19896,19896,19896,19896,19896,19896,-8,-8,-8,-8,-8,-8,-8,-8,-8,-8,-8,-8,-8,-8,-8,-8,-8,24920,25144,24920,24920,24920,24920,24920,24920,24920,24920,25144,25144,25144,25144,25376,25376,25608,25848,-8,-8,-8,-8,-8,-8,-8,-8,-8,-8,25144,25144,25144,25144,25144,24920,25144,25144,25144,24920,24472,23840,22856,22672,22672,22672,22480,22480,22480,22480,22304,22304,21944,21944,21944,21776,21608,21776,21608,21608,21608,21440,21440,21440,21440,21440,21440,21272,20952,20792,20792,20640,20640,20640,20640,20480,20184,20184,20040,19896,19752,19608,19608,19472,19472,19336,19336,19336,19336,19200,19200,19200,19072,18936,18936,18808,18808,18808,18808,18680,18680,18560,18192,18192,18072,18072,17952,17840,17840,17840,17840,17720,17608,17608,17496,17496,17280,17176,17176,17176,16960,16760,16760,16552,16552,16456,16360,16360,16360,12624,12624,12624,12624,12624,12568,12624,12568,12568,12568,12504,12504,-8
-8,-8,-8,-8,-8,-8,-8,0,0,0,0,0,0,0,0,0,0,0,0,0,0,0,0,0,0,0,0,0,0,0,0,0,0,0,0,0,0,0,0,0,0,0,0,0,0,0,0,0,0,0,0,0,0,0,0,0,0,0,0,0,0,0,0,0,0,0,0,0,0,0,0,0,0,0,0,0,0,0,0,0,0,0,0,0,0,0,0,0,0,0,0,0,0,0,0,0,0,0,0,0,0,0,0,0,0,0,0,0,0,0,0,0,0,0,0,0,0,0,0,0,0,0,0,0,0,0,0,0,0,0,0,0,0,0,0,0,0,0,0,0,0,0,0,0,0,0,0,0,0,0,0,0,0,0,0,0,0,0,0,0,0,0,0,0,0,0,0,0,0,0,0,0,0,0,0,0,0,0,0,0,0,0,0,0,0,0,0,0,0,0,0,0,0,0,0,0,0,0,0,0,0,0,0,0,0,0,0,0,0,0,0,0,0,0,0,0,0,0,0,0,0,0,0,0,0,0,0,0,0,0,0,0,0,0,0,0,0,0,0,0,0,0,0,0,0,0,0,0,0,0,0,0,0,0,0,0,0,0,0,0,0,0,0,0,0,0,0,0,0,0,0,0,0,0,0,0,0,0,0,0,0,0,0,0,0,0,-8,-8,-8,-8,-8,-8,-8,-8,-8,-8,-8,-8,-8,-8,7592,7568,7568,7568,7552,7552,7528,7528,7528,7512,7512,7488,7488,7464,7464,7464,7448,7448,7424,7448,7424,7424,7424,7408,7408,7384,7384,7384,7384,7368,7368,7368,7368,7368,7368,7368,7368,7352,7352,7352,7352,7352,7328,7328,7328,7328,7328,7328,7328,7328,7328,7328,7312,7312,7312,7312,7312,7312,7312,7328,7328,7328,7328,7328,7352,7352,7352,7352,7352,7352,7352,7368,7368,7368,7368,7368,7368,7384,7384,7384,7384,7384,7408,7408,7408,7408,7424,7424,7448,7448,7448,7464,7488,7488,7512,7528,7528,7528,7552,7552,7568,7592,7616,7632,7672,7696,7720,7744,7744,7760,7784,7784,7808,-8,-8,-8,-8,-8,-8,-8,-8,-8,-8,-8,-8,-8,-8,-8,-8,-8,-8,-8,-8,-8,-8,-8,-8,-8,19608,19608,19752,19752,19752,19896,19896,19752,19896,19896,19896,19896,19896,19896,19896,19896,19896,19896,19896,19896,19896,19896,19896,19896,19896,19896,19896,19896,19896,19896,19896,19896,19896,19896,19896,19896,19896,19896,19896,19896,20040,19896,19896,19896,19896,-8,-8,-8,-8,-8,-8,-8,-8,-8,24264,-8,-8,-8,-8,-8,-8,24696,24696,24920,24920,24920,24920,24920,24696,24920,24696,24920,24920,24920,24920,25144,25144,-8,-8,-8,-8,-8,-8,-8,-8,-8,-8,-8,-8,-8,-8,-8,25144,25144,25144,25144,25144,25144,25144,24696,24696,24264,22856,22672,22672,22480,22480,22480,22480,22304,22304,22304,22120,21944,21944,21776,21776,21776,21776,21608,21608,21608,21440,21440,21440,21440,21272,20952,20952,20792,20792,20792,20792,20792,20640,20480,20336,20184,20040,19896,19752,19608,19608,19472,19472,19472,19472,19336,19336,19336,19200,19200,19072,18936,18936,18936,18808,18808,18680,18680,18560,18560,18432,18312,18192,18072,17952,17952,17952,17840,17840,17720,17720,17608,17608,17496,17280,17176,17176,17064,17064,16856,16856,16552,16552,16552,16552,16552,-8,12624,12624,12568,12568,12568,12568,12568,12568,12624,12568,12504,12504,-8
-8,-8,-8,-8,-8,-8,-8,0,0,0,0,0,0,0,0,0,0,0,0,0,0,0,0,0,0,0,0,0,0,0,0,0,0,0,0,0,0,0,0,0,0,0,0,0,0,0,0,0,0,0,0,0,0,0,0,0,0,0,0,0,0,0,0,0,0,0,0,0,0,0,0,0,0,0,0,0,0,0,0,0,0,0,0,0,0,0,0,0,0,0,0,0,0,0,0,0,0,0,0,0,0,0,0,0,0,0,0,0,0,0,0,0,0,0,0,0,0,0,0,0,0,0,0,0,0,0,0,0,0,0,0,0,0,0,0,0,0,0,0,0,0,0,0,0,0,0,0,0,0,0,0,0,0,0,0,0,0,0,0,0,0,0,0,0,0,0,0,0,0,0,0,0,0,0,0,0,0,0,0,0,0,0,0,0,0,0,0,0,0,0,0,0,0,0,0,0,0,0,0,0,0,0,0,0,0,0,0,0,0,0,0,0,0,0,0,0,0,0,0,0,0,0,0,0,0,0,0,0,0,0,0,0,0,0,0,0,0,0,0,0,0,0,0,0,0,0,0,0,0,0,0,0,0,0,0,0,0,0,0,0,0,0,0,0,0,0,0,0,0,0,0,0,0,0,0,0,0,0,0,0,0,0,0,0,0,0,-8,-8,-8,-8,-8,-8,-8,-8,-8,-8,-8,-8,-8,-8,7592,7592,7568,7568,7568,7552,7552,7528,7528,7528,7512,7512,7488,7488,7464,7464,7448,7448,7424,7448,7448,7424,7424,7424,7408,7408,7408,7384,7384,7384,7384,7368,7368,7368,7368,7368,7368,7368,7368,7368,7368,7352,7352,7352,7328,7352,7352,7328,7328,7328,7328,7328,7328,7328,7312,7312,7312,7312,7328,7328,7328,7328,7328,7328,7352,7352,7352,7352,7352,7352,7368,7368,7368,7368,7368,7384,7384,7384,7384,7384,7384,7408,7408,7408,7424,7424,7424,7448,7448,7448,7464,7464,7488,7528,7528,7528,7552,7552,7568,7568,7592,7616,7632,7656,7672,7696,7720,7760,7760,7784,7808,7808,7824,-8,-8,-8,-8,-8,-8,-8,-8,-8,-8,-8,-8,-8,-8,-8,-8,-8,-8,-8,-8,-8,-8,-8,-8,-8,19752,19752,19896,19896,19896,19896,19896,19896,19896,19896,19896,19896,19896,19896,19896,19896,19896,19896,19896,19896,19896,19896,19896,19896,19896,19896,19896,19896,19896,19896,19896,19896,19896,19896,20040,20040,19896,19896,19896,19896,20040,20040,19896,19896,19896,-8,-8,-8,-8,-8,-8,-8,-8,24472,24472,24264,23640,-8,24264,24472,24264,24472,24472,-8,24472,-8,24472,-8,-8,-8,-8,-8,-8,-8,24696,-8,24920,-8,-8,-8,-8,-8,-8,-8,-8,-8,-8,-8,-8,-8,-8,-8,-8,24920,24920,24920,24920,24920,24920,24696,24472,24264,24264,22856,22856,22672,22672,22480,22480,22304,22304,22120,21944,21944,21944,21944,21776,21776,21776,21776,21608,21608,21608,21440,21272,21272,21112,20952,20792,20792,20792,20792,20792,20640,20640,20480,20336,20184,20184,20040,19896,19752,19752,19608,19472,19472,19472,19472,19472,19336,19336,19200,19200,18936,18936,18808,18808,18808,18680,18560,18560,18560,18432,18312,18192,18072,18072,17952,17952,17840,17840,17720,17720,17608,17608,17496,17392,17280,17280,16960,17064,16856,16760,16552,16552,16552,-8,-8,-8,12624,12624,12680,12624,12680,12624,12624,12680,12680,12624,12568,12568,-8
-8,-8,-8,-8,-8,-8,-8,6752,0,0,0,0,0,0,0,0,0,0,0,0,0,0,0,0,0,0,0,0,0,0,0,0,0,0,0,0,0,0,0,0,0,0,0,0,0,0,0,0,0,0,0,0,0,0,0,0,0,0,0,0,0,0,0,0,0,0,0,0,0,0,0,0,0,0,0,0,0,0,0,0,0,0,0,0,0,0,0,0,0,0,0,0,0,0,0,0,0,0,0,0,0,0,0,0,0,0,0,0,0,0,0,0,0,0,0,0,0,0,0,0,0,0,0,0,0,0,0,0,0,0,0,0,0,0,0,0,0,0,0,0,0,0,0,0,0,0,0,0,0,0,0,0,0,0,0,0,0,0,0,0,0,0,0,0,0,0,0,0,0,0,0,0,0,0,0,0,0,0,0,0,0,0,0,0,0,0,0,0,0,0,0,0,0,0,0,0,0,0,0,0,0,0,0,0,0,0,0,0,0,0,0,0,0,0,0,0,0,0,0,0,0,0,0,0,0,0,0,0,0,0,0,0,0,0,0,0,0,0,0,0,0,0,0,0,0,0,0,0,0,0,0,0,0,0,0,0,0,0,0,0,0,0,0,0,0,0,0,0,0,0,-8,-8,0,0,0,0,0,0,0,0,0,0,0,0,0,0,-8,-8,-8,-8,-8,-8,-8,-8,-8,-8,-8,-8,-8,-8,7592,7592,7592,7592,7568,7552,7552,7528,7528,7528,7528,7512,7512,7488,7488,7488,7464,7448,7448,7464,7448,7448,7448,7424,7424,7424,7408,7384,7384,7384,7384,7384,7368,7368,7368,7368,7368,7368,7368,7368,7368,7368,7352,7352,7352,7352,7352,7352,7352,7352,7352,7352,7328,7328,7312,7328,7328,7328,7328,7328,7352,7352,7352,7352,7352,7352,7352,7352,7352,7352,7368,7368,7368,7368,7368,7384,7384,7384,7384,7384,7408,7408,7424,7424,7424,7448,7448,7448,7464,7464,7488,7488,7512,7528,7528,7552,7552,7568,7592,7592,7616,7632,7656,7672,7696,7720,7744,7760,7784,7808,7808,7824,7848,-8,-8,-8,-8,-8,-8,-8,-8,-8,-8,-8,-8,-8,-8,-8,-8,-8,-8,-8,-8,-8,-8,-8,-8,-8,19896,19896,19896,19896,19896,19896,19896,19896,19896,19752,19752,19896,19896,19896,19896,19896,19896,20040,20040,20040,20040,19896,20040,20040,19896,19896,19896,19896,19896,19896,19896,19896,19896,20040,20040,20040,19896,19896,19896,20040,20040,20040,19896,19896,19896,-8,-8,-8,-8,-8,-8,-8,-8,24472,24472,24264,24264,24472,24264,24264,24264,24264,24264,24264,-8,-8,-8,-8,-8,-8,-8,-8,-8,-8,-8,-8,-8,-8,-8,-8,-8,-8,-8,-8,-8,-8,-8,-8,-8,-8,-8,-8,-8,-8,24920,24920,24920,24920,24920,24696,24696,24264,24048,23440,23048,22856,22672,22672,22480,22480,22304,22120,21944,21944,21944,21944,21776,21776,21776,21776,21608,21608,21440,21440,21272,21272,21112,20952,20792,20792,20792,20792,20792,20640,20640,20480,20336,20184,20040,20040,19752,19752,19608,19608,19472,19472,19472,19472,19472,19336,19336,19200,19072,18936,18936,18936,18808,18808,18680,18680,18680,18560,18432,18432,18192,18072,17952,17952,17952,17840,17840,17720,17608,17608,17496,17496,17392,17392,17392,17176,17176,16960,16856,16552,16552,16552,16552,16552,-8,12624,12624,12680,12680,12680,12680,12680,12680,12680,12680,12624,12568,-8
-8,-8,-8,-8,-8,-8,-8,6752,6752,0,0,0,0,0,0,0,0,0,0,0,0,0,0,0,0,0,0,0,0,0,0,0,0,0,0,0,0,0,0,0,0,0,0,0,0,0,0,0,0,0,0,0,0,0,0,0,0,0,0,0,0,0,0,0,0,0,0,0,0,0,0,0,0,0,0,0,0,0,0,0,0,0,0,0,0,0,0,0,0,0,0,0,0,0,0,0,0,0,0,0,0,0,0,0,0,0,0,0,0,0,0,0,0,0,0,0,0,0,0,0,0,0,0,0,0,0,0,0,0,0,0,0,0,0,0,0,0,0,0,0,0,0,0,0,0,0,0,0,0,0,0,0,0,0,0,0,0,0,0,0,0,0,0,0,0,0,0,0,0,0,0,0,0,0,0,0,0,0,0,0,0,0,0,0,0,0,0,0,0,0,0,0,0,0,0,0,0,0,0,0,0,0,0,0,0,0,0,0,0,0,0,0,0,0,0,0,0,0,0,0,0,0,0,0,0,0,0,0,0,0,0,0,0,0,0,0,0,0,0,0,0,0,0,0,0,0,0,0,0,0,0,0,0,0,0,0,0,0,0,0,0,0,0,0,0,0,0,0,-8,0,0,0,0,0,0,0,0,0,0,0,0,0,0,0,0,0,-8,-8,-8,-8,-8,-8,-8,-8,-8,-8,-8,-8,-8,-8,7616,7592,7592,7592,7592,7568,7568,7552,7528,7528,7528,7528,7512,7512,7512,7488,7464,7448,7448,7464,7448,7448,7448,7448,7448,7424,7424,7408,7384,7384,7384,7384,7384,7384,7384,7384,7384,7368,7368,7368,7368,7368,7368,7352,7352,7352,7368,7352,7352,7352,7352,7352,7352,7352,7328,7328,7328,7328,7328,7328,7352,7352,7352,7352,7352,7368,7368,7368,7368,7368,7368,7368,7384,7368,7384,7384,7384,7408,7408,7408,7424,7424,7448,7448,7448,7448,7448,7464,7464,7488,7512,7512,7528,7552,7552,7568,7568,7592,7616,7616,7632,7632,7672,7696,7696,7744,7760,7784,7784,7808,7824,7848,7848,-8,-8,-8,-8,-8,-8,-8,-8,-8,-8,-8,-8,-8,-8,-8,-8,-8,-8,-8,-8,-8,-8,-8,-8,-8,19896,19896,20040,19896,19896,19896,19896,19896,19896,19752,19752,19752,19896,19896,19896,19896,19896,20040,20040,20040,20040,20040,20040,20040,19896,19896,19896,19896,19896,19896,19896,19896,19896,20040,20040,20040,19896,19896,19896,19896,20040,20040,19896,19896,19896,-8,-8,-8,-8,-8,-8,-8,-8,24472,24472,24264,24264,24472,24472,24472,24472,24472,24264,24264,-8,-8,-8,-8,-8,-8,-8,-8,-8,-8,-8,-8,-8,-8,-8,-8,-8,-8,-8,-8,-8,-8,-8,-8,-8,-8,-8,-8,-8,-8,24696,24696,24920,24696,24696,24472,24472,24264,24264,23840,23440,22856,22672,22672,22480,22304,22120,21944,21944,21776,21776,21776,21776,21776,21776,21776,21776,21608,21608,21440,21272,21272,21112,20792,20792,20792,20792,20792,20640,20640,20640,20480,20336,20184,20040,20040,19752,19752,19752,19608,19472,19472,19472,19472,19472,19336,19336,19200,19200,19072,18936,18936,18808,18680,18560,18560,18560,18560,18432,18312,18192,18072,18072,17952,17952,17840,17720,17720,17608,17608,17608,17496,17496,17392,17392,17176,17176,17064,16856,16656,16656,16656,16552,16552,13104,12680,12680,12736,12680,12680,12680,12680,12680,12680,12680,12680,12624,-8
-8,-8,-8,-8,-8,-8,-8,6752,6736,6752,6752,0,0,0,0,0,0,0,0,0,0,0,0,0,0,0,0,0,0,0,0,0,0,0,0,0,0,0,0,0,0,0,0,0,0,0,0,0,0,0,0,0,0,0,0,0,0,0,0,0,0,0,0,0,0,0,0,0,0,0,0,0,0,0,0,0,0,0,0,0,0,0,0,0,0,0,0,0,0,0,0,0,0,0,0,0,0,0,0,0,0,0,0,0,0,0,0,0,0,0,0,0,0,0,0,0,0,0,0,0,0,0,0,0,0,0,0,0,0,0,0,0,0,0,0,0,0,0,0,0,0,0,0,0,0,0,0,0,0,0,0,0,0,0,0,0,0,0,0,0,0,0,0,0,0,0,0,0,0,0,0,0,0,0,0,0,0,0,0,0,0,0,0,0,0,0,0,0,0,0,0,0,0,0,0,0,0,0,0,0,0,0,0,0,0,0,0,0,0,0,0,0,0,0,0,0,0,0,0,0,0,0,0,0,0,0,0,0,0,0,0,0,0,0,0,0,0,0,0,0,0,0,0,0,0,0,0,0,0,0,0,0,0,0,0,0,0,0,0,0,0,0,0,0,0,0,0,0,-8,-8,0,0,0,0,0,0,0,0,0,0,0,0,0,0,0,0,0,-8,-8,-8,-8,-8,-8,-8,-8,-8,-8,-8,-8,-8,7616,7616,7592,7592,7592,7568,7568,7552,7552,7552,7552,7528,7528,7528,7512,7512,7488,7464,7448,7464,7464,7464,7448,7448,7448,7448,7448,7424,7408,7408,7384,7384,7384,7384,7384,7384,7384,7384,7384,7384,7384,7384,7384,7368,7368,7368,7368,7368,7368,7368,7368,7368,7368,7368,7352,7352,7352,7352,7352,7352,7368,7368,7352,7368,7368,7368,7368,7368,7368,7368,7368,7384,7384,7384,7384,7384,7408,7408,7408,7424,7424,7448,7448,7448,7448,7464,7464,7464,7464,7488,7512,7512,7528,7552,7552,7568,7568,7592,7616,7616,7632,7672,7696,7696,7720,7744,7784,7808,7808,7824,7824,7848,7872,7872,-8,-8,-8,-8,-8,-8,-8,-8,-8,-8,-8,-8,-8,-8,-8,-8,-8,-8,-8,-8,-8,-8,-8,-8,20040,20040,20040,20040,20040,20040,19896,19896,19896,19752,19752,19752,19896,19896,19896,19896,19896,19896,19896,19896,19896,19896,20040,19896,20040,19896,19896,19896,19896,19896,19896,19896,19896,20040,19896,19896,19896,19896,19896,20040,20040,20040,20040,20040,20040,-8,-8,-8,-8,-8,-8,24472,24472,24472,24472,24264,24264,24472,24264,24472,24472,24264,24264,24264,24264,24264,24264,-8,-8,-8,-8,-8,-8,-8,-8,-8,-8,-8,-8,-8,-8,-8,-8,-8,-8,-8,-8,-8,-8,-8,-8,-8,-8,-8,24264,24264,24696,24696,24696,24472,24472,24264,24264,24048,23640,22856,22672,22672,22480,22304,22120,21944,21944,21776,21776,21776,21776,21776,21776,21776,21776,21608,21608,21440,21272,21272,20952,20792,20792,20792,20640,20640,20640,20640,20640,20336,20184,20184,20040,19896,19752,19752,19752,19608,19472,19472,19472,19472,19472,19336,19200,19200,19200,19072,18936,18936,18808,18680,18560,18560,18432,18432,18312,18192,18192,18072,17952,17952,17952,17840,17720,17608,17608,17608,17608,17496,17496,17392,17496,17176,17176,17064,16856,16760,16656,16760,13040,13104,13104,13104,12736,12736,12680,12680,12680,12680,12736,12736,12680,12680,12624,-8
-8,-8,-8,-8,-8,-8,-8,6736,6736,6736,6736,6752,0,0,0,0,0,0,0,0,0,0,0,0,0,0,0,0,0,0,0,0,0,0,0,0,0,0,0,0,0,0,0,0,0,0,0,0,0,0,0,0,0,0,0,0,0,0,0,0,0,0,0,0,0,0,0,0,0,0,0,0,0,0,0,0,0,0,0,0,0,0,0,0,0,0,0,0,0,0,0,0,0,0,0,0,0,0,0,0,0,0,0,0,0,0,0,0,0,0,0,0,0,0,0,0,0,0,0,0,0,0,0,0,0,0,0,0,0,0,0,0,0,0,0,0,0,0,0,0,0,0,0,0,0,0,0,0,0,0,0,0,0,0,0,0,0,0,0,0,0,0,0,0,0,0,0,0,0,0,0,0,0,0,0,0,0,0,0,0,0,0,0,0,0,0,0,0,0,0,0,0,0,0,0,0,0,0,0,0,0,0,0,0,0,0,0,0,0,0,0,0,0,0,0,0,0,0,0,0,0,0,0,0,0,0,0,0,0,0,0,0,0,0,0,0,0,0,0,0,0,0,0,0,0,0,0,0,0,0,0,0,0,0,0,0,0,0,0,0,0,0,0,0,0,0,0,-8,0,0,0,0,0,0,0,0,0,0,0,0,0,0,0,0,0,0,0,0,-8,-8,-8,-8,-8,-8,-8,-8,-8,-8,-8,-8,7616,7616,7592,7592,7592,7568,7568,7552,7552,7552,7552,7552,7528,7528,7528,7512,7512,7464,7464,7488,7464,7464,7464,7464,7464,7464,7448,7448,7424,7424,7408,7408,7408,7384,7384,7384,7408,7408,7384,7384,7384,7384,7384,7368,7368,7368,7368,7368,7368,7368,7368,7368,7368,7368,7368,7368,7368,7368,7352,7352,7368,7368,7368,7368,7368,7368,7368,7368,7368,7368,7384,7384,7384,7384,7384,7408,7424,7424,7424,7424,7424,7448,7448,7464,7464,7464,7464,7488,7488,7512,7512,7528,7528,7552,7568,7568,7592,7616,7632,7656,7672,7672,7696,7720,7720,7760,7784,7808,7824,7848,7848,7872,7896,-8,-8,-8,-8,-8,-8,-8,-8,-8,-8,-8,-8,-8,-8,-8,-8,-8,-8,-8,-8,-8,-8,-8,-8,-8,20040,20184,20040,20040,20040,20040,20040,19896,19896,19896,19896,19896,19896,19896,19896,19896,19896,19896,19896,20040,19896,20040,20040,20040,20040,20040,20040,20040,20040,20040,19896,19896,20040,20040,19896,20040,19896,20040,20040,20040,20040,20040,20040,20040,20040,19896,-8,-8,-8,24264,24472,24472,24472,24472,24472,24472,24264,24472,24264,24472,24472,24264,24264,24264,24264,24264,24264,-8,-8,-8,24264,-8,-8,-8,-8,-8,-8,-8,-8,-8,-8,-8,-8,-8,-8,-8,-8,-8,-8,-8,-8,-8,-8,24264,24264,24264,24696,24696,24696,24696,24472,24264,24264,24048,23840,22856,22672,22672,22480,22304,21944,21944,21944,21776,21776,21776,21776,21776,21776,21776,21776,21608,21608,21440,21272,21112,20952,20792,20640,20640,20640,20640,20640,20640,20480,20336,20184,20184,20040,19896,19752,19896,19752,19752,19608,19472,19608,19472,19336,19200,19200,19072,19072,19072,19072,19072,18808,18680,18560,18432,18312,18312,18192,18192,18192,18072,17952,17952,17952,17840,17720,17608,17608,17608,17496,17496,17496,17392,17280,17176,17176,17064,16856,16856,16760,16760,13104,13104,13104,13040,12800,12800,12736,12736,12736,12736,12736,12736,12736,12680,12680,-8
-8,-8,-8,-8,-8,-8,-8,6736,6736,6752,6736,6752,0,0,0,0,0,0,0,0,0,0,0,0,0,0,0,0,0,0,0,0,0,0,0,0,0,0,0,0,0,0,0,0,0,0,0,0,0,0,0,0,0,0,0,0,0,0,0,0,0,0,0,0,0,0,0,0,0,0,0,0,0,0,0,0,0,0,0,0,0,0,0,0,0,0,0,0,0,0,0,0,0,0,0,0,0,0,0,0,0,0,0,0,0,0,0,0,0,0,0,0,0,0,0,0,0,0,0,0,0,0,0,0,0,0,0,0,0,0,0,0,0,0,0,0,0,0,0,0,0,0,0,0,0,0,0,0,0,0,0,0,0,0,0,0,0,0,0,0,0,0,0,0,0,0,0,0,0,0,0,0,0,0,0,0,0,0,0,0,0,0,0,0,0,0,0,0,0,0,0,0,0,0,0,0,0,0,0,0,0,0,0,0,0,0,0,0,0,0,0,0,0,0,0,0,0,0,0,0,0,0,0,0,0,0,0,0,0,0,0,0,0,0,0,0,0,0,0,0,0,0,0,0,0,0,0,0,0,0,0,0,0,0,0,0,0,0,0,0,0,0,0,0,0,0,0,0,-8,0,0,0,0,0,0,0,0,0,0,0,0,0,0,0,0,0,0,0,-8,-8,-8,-8,-8,-8,-8,-8,-8,-8,-8,-8,7632,7632,7616,7616,7616,7592,7568,7552,7552,7552,7552,7552,7528,7552,7528,7528,7512,7488,7488,7488,7488,7464,7464,7464,7464,7464,7464,7448,7448,7424,7424,7424,7408,7408,7408,7408,7408,7408,7408,7408,7408,7384,7384,7384,7384,7368,7368,7384,7368,7384,7384,7384,7384,7384,7384,7384,7384,7368,7368,7368,7368,7368,7368,7368,7368,7384,7384,7384,7384,7384,7384,7384,7408,7408,7408,7424,7424,7424,7448,7448,7448,7448,7464,7464,7464,7464,7488,7488,7512,7512,7528,7528,7552,7552,7568,7592,7616,7632,7632,7656,7672,7696,7696,7720,7744,7760,7808,7824,7848,7872,7872,7896,7896,-8,-8,-8,-8,-8,-8,-8,-8,-8,-8,-8,-8,-8,-8,-8,-8,-8,-8,-8,-8,-8,-8,-8,-8,-8,20040,20184,20040,20040,20040,20040,20040,19896,19896,19896,19896,19896,19896,19896,19896,20040,19896,20040,20040,20040,20040,20040,20040,20040,20040,20040,20040,20040,20040,20040,19896,19896,20040,20040,19896,19896,19896,20040,20040,20040,20040,20040,20040,20040,20040,20040,-8,-8,-8,24264,24472,24472,24472,24472,24696,24472,24472,24472,24472,24472,24472,24472,24472,24696,24472,24472,24472,-8,-8,24472,24472,24264,24264,24264,24264,24048,24048,24048,-8,24264,-8,-8,-8,-8,-8,-8,-8,-8,-8,-8,-8,24048,24264,24264,24264,24696,24696,24696,24696,24696,24696,24264,24264,24048,24048,23240,22856,22856,22304,22120,21944,21944,21944,21776,21776,21776,21776,21944,21776,21776,21776,21608,21440,21272,21272,21112,20952,20792,20640,20640,20640,20640,20640,20480,20336,20336,20184,20184,20040,20040,19896,19896,19752,19608,19472,19472,19472,19472,19336,19200,19200,19072,19072,19072,19072,19072,18936,18808,18560,18432,18312,18312,18192,18192,18072,18072,17952,17952,17952,17840,17720,17608,17608,17608,17608,17496,17496,17496,17496,17280,17176,17064,17064,16960,16856,16856,13040,13104,13104,13104,12920,12920,12800,12800,12736,12736,12736,12736,12736,12736,12736,-8
-8,-8,-8,-8,-8,-8,-8,6736,6736,6736,6752,6752,0,0,0,0,0,0,0,0,0,0,0,0,0,0,0,0,0,0,0,0,0,0,0,0,0,0,0,0,0,0,0,0,0,0,0,0,0,0,0,0,0,0,0,0,0,0,0,0,0,0,0,0,0,0,0,0,0,0,0,0,0,0,0,0,0,0,0,0,0,0,0,0,0,0,0,0,0,0,0,0,0,0,0,0,0,0,0,0,0,0,0,0,0,0,0,0,0,0,0,0,0,0,0,0,0,0,0,0,0,0,0,0,0,0,0,0,0,0,0,0,0,0,0,0,0,0,0,0,0,0,0,0,0,0,0,0,0,0,0,0,0,0,0,0,0,0,0,0,0,0,0,0,0,0,0,0,0,0,0,0,0,0,0,0,0,0,0,0,0,0,0,0,0,0,0,0,0,0,0,0,0,0,0,0,0,0,0,0,0,0,0,0,0,0,0,0,0,0,0,0,0,0,0,0,0,0,0,0,0,0,0,0,0,0,0,0,0,0,0,0,0,0,0,0,0,0,0,0,0,0,0,0,0,0,0,0,0,0,0,0,0,0,0,0,0,0,0,0,0,0,0,0,0,0,-8,-8,0,0,0,0,0,0,0,0,0,0,0,0,0,0,0,0,0,0,0,0,-8,-8,-8,-8,-8,-8,-8,-8,-8,-8,-8,-8,7656,7656,7632,7616,7616,7592,7592,7568,7568,7552,7552,7552,7552,7552,7552,7528,7528,7512,7512,7512,7512,7488,7464,7464,7464,7464,7464,7448,7448,7448,7424,7424,7424,7408,7408,7408,7408,7424,7408,7408,7408,7408,7424,7408,7408,7384,7384,7384,7384,7384,7384,7384,7384,7384,7384,7384,7384,7384,7384,7384,7384,7384,7384,7384,7384,7384,7384,7384,7384,7384,7408,7408,7408,7408,7424,7424,7448,7448,7448,7448,7448,7464,7464,7464,7464,7488,7488,7512,7512,7528,7528,7552,7552,7568,7592,7592,7616,7632,7632,7656,7672,7696,7696,7720,7744,7784,7808,7824,7872,7872,7896,7920,7920,-8,-8,-8,-8,-8,-8,-8,-8,-8,-8,-8,-8,-8,-8,-8,-8,-8,-8,-8,-8,-8,-8,-8,-8,20336,20184,20184,20184,20040,20040,20040,20040,20040,20040,19896,19896,19896,19896,19896,19896,20040,20040,20040,20040,20040,20040,20040,20040,20040,20040,20040,20040,20040,20040,20040,20040,20040,20040,20040,20040,20040,20040,20040,20040,20040,20040,20040,20040,20040,20040,20040,-8,-8,24264,24264,24472,24472,24472,24472,24696,24472,24696,24696,24472,24696,24696,24472,24472,24472,24472,24472,24472,24696,24696,24472,24696,24472,24472,24264,24264,24048,24048,24048,24048,24048,24048,-8,-8,-8,-8,-8,-8,-8,-8,-8,24048,24264,24264,24472,24472,24696,24696,24696,24696,24696,24696,24264,24264,24264,24264,23840,23440,23048,22304,21944,21944,21944,21944,21776,21776,21776,21776,21944,21776,21776,21608,21608,21440,21272,21272,21112,20952,20792,20792,20792,20640,20640,20640,20480,20336,20336,20184,20184,20040,19896,19752,19896,19752,19608,19608,19472,19472,19472,19336,19200,19200,19072,19072,19072,19072,18936,18936,18808,18560,18432,18432,18312,18312,18192,18192,18072,18072,18072,17952,17840,17720,17608,17608,17608,17608,17608,17608,17608,17608,17280,17064,16960,16960,16960,16960,13040,13040,13160,13160,13160,13104,13040,12920,12920,12856,12800,12800,12800,12736,12736,12736,-8
-8,-8,-8,-8,-8,-8,-8,6736,6736,6736,6736,6752,6768,0,0,0,0,0,0,0,0,0,0,0,0,0,0,0,0,0,0,0,0,0,0,0,0,0,0,0,0,0,0,0,0,0,0,0,0,0,0,0,0,0,0,0,0,0,0,0,0,0,0,0,0,0,0,0,0,0,0,0,0,0,0,0,0,0,0,0,0,0,0,0,0,0,0,0,0,0,0,0,0,0,0,0,0,0,0,0,0,0,0,0,0,0,0,0,0,0,0,0,0,0,0,0,0,0,0,0,0,0,0,0,0,0,0,0,0,0,0,0,0,0,0,0,0,0,0,0,0,0,0,0,0,0,0,0,0,0,0,0,0,0,0,0,0,0,0,0,0,0,0,0,0,0,0,0,0,0,0,0,0,0,0,0,0,0,0,0,0,0,0,0,0,0,0,0,0,0,0,0,0,0,0,0,0,0,0,0,0,0,0,0,0,0,0,0,0,0,0,0,0,0,0,0,0,0,0,0,0,0,0,0,0,0,0,0,0,0,0,0,0,0,0,0,0,0,0,0,0,0,0,0,0,0,0,0,0,0,0,0,0,0,0,0,0,0,0,0,0,0,0,0,0,0,-8,-8,0,0,0,0,0,0,0,0,0,0,0,0,0,0,0,0,0,0,0,0,-8,-8,-8,-8,-8,-8,-8,-8,-8,-8,-8,-8,7672,7656,7656,7656,7656,7632,7592,7568,7568,7568,7552,7552,7552,7552,7552,7552,7528,7528,7512,7528,7512,7512,7488,7488,7464,7464,7464,7464,7464,7448,7448,7448,7448,7424,7424,7424,7424,7424,7424,7408,7424,7424,7424,7424,7408,7408,7408,7408,7384,7384,7384,7384,7384,7408,7384,7408,7408,7408,7384,7408,7408,7408,7408,7408,7408,7408,7408,7408,7408,7408,7408,7408,7424,7424,7424,7448,7448,7448,7464,7464,7464,7464,7464,7488,7488,7512,7512,7528,7528,7528,7552,7552,7568,7568,7592,7616,7616,7632,7632,7656,7672,7696,7720,7744,7744,7784,7808,7824,7872,7896,7896,7920,7944,7960,-8,-8,-8,-8,-8,-8,-8,-8,-8,-8,-8,-8,-8,-8,-8,-8,-8,-8,-8,-8,-8,-8,-8,20184,20184,20184,20184,20040,20040,20040,20040,20040,20040,20040,20040,20040,19896,20040,20040,20040,20040,20040,20040,20040,20040,20040,20040,20040,20040,20040,20040,20040,20040,20040,20040,20040,20040,20040,20040,20040,20040,20040,20040,20040,20040,20040,20040,20040,20040,-8,-8,-8,24264,24264,24472,24264,24264,24472,24472,24472,24472,24472,24472,24472,24696,24472,24472,24472,24472,24472,24472,24472,24472,24472,24472,24472,24696,24472,24264,24264,24048,24048,24048,24048,-8,-8,-8,-8,-8,-8,-8,-8,-8,24264,24048,24264,24472,24472,24696,24696,24696,24696,24920,24696,24696,24264,24264,24048,24264,24048,23840,23240,22480,21944,21944,21944,21776,21776,21776,21776,21776,21776,21776,21776,21608,21608,21440,21272,21272,21112,21112,20952,20792,20792,20640,20640,20640,20480,20336,20336,20184,20184,19896,19896,19752,19752,19752,19608,19608,19608,19472,19472,19336,19200,19200,19072,19072,19072,19072,18936,18936,18808,18680,18560,18432,18312,18192,18192,18072,18072,18072,17952,17952,17840,17720,17608,17608,17496,17496,17496,17608,17496,17608,16960,16960,16960,16960,16960,16960,17064,13160,13160,13160,13160,13160,13160,13104,13104,13040,12856,12800,12800,12736,12736,12736,-8
-8,-8,-8,-8,-8,-8,-8,6736,6736,6736,6736,6752,6752,0,0,0,0,0,0,0,0,0,0,0,0,0,0,0,0,0,0,0,0,0,0,0,0,0,0,0,0,0,0,0,0,0,0,0,0,0,0,0,0,0,0,0,0,0,0,0,0,0,0,0,0,0,0,0,0,0,0,0,0,0,0,0,0,0,0,0,0,0,0,0,0,0,0,0,0,0,0,0,0,0,0,0,0,0,0,0,0,0,0,0,0,0,0,0,0,0,0,0,0,0,0,0,0,0,0,0,0,0,0,0,0,0,0,0,0,0,0,0,0,0,0,0,0,0,0,0,0,0,0,0,0,0,0,0,0,0,0,0,0,0,0,0,0,0,0,0,0,0,0,0,0,0,0,0,0,0,0,0,0,0,0,0,0,0,0,0,0,0,0,0,0,0,0,0,0,0,0,0,0,0,0,0,0,0,0,0,0,0,0,0,0,0,0,0,0,0,0,0,0,0,0,0,0,0,0,0,0,0,0,0,0,0,0,0,0,0,0,0,0,0,0,0,0,0,0,0,0,0,0,0,0,0,0,0,0,0,0,0,0,0,0,0,0,0,0,0,0,0,0,0,0,0,0,-8,0,0,0,0,0,0,0,0,0,0,0,0,0,0,0,0,0,0,0,0,-8,-8,-8,-8,-8,-8,-8,-8,-8,-8,-8,7672,7672,7672,7656,7656,7672,7656,7616,7592,7592,7568,7592,7568,7568,7568,7568,7568,7552,7528,7528,7528,7528,7512,7488,7488,7464,7464,7464,7464,7464,7464,7448,7448,7448,7424,7424,7424,7424,7424,7424,7424,7424,7424,7424,7424,7424,7408,7424,7424,7408,7408,7384,7408,7408,7408,7408,7408,7424,7424,7424,7424,7408,7424,7424,7424,7424,7424,7424,7424,7424,7424,7424,7424,7424,7448,7448,7448,7448,7464,7464,7464,7464,7488,7488,7512,7512,7512,7528,7528,7528,7552,7552,7552,7568,7568,7592,7616,7632,7632,7656,7672,7672,7696,7720,7744,7760,7808,7824,7872,7896,7920,7944,7960,7960,-8,-8,-8,-8,-8,-8,-8,-8,-8,-8,-8,-8,-8,-8,-8,-8,-8,-8,-8,-8,-8,-8,-8,20184,20184,20040,20184,20184,20040,20040,20040,20040,20040,20040,20040,20040,20040,20040,20040,20040,20184,20184,20184,20040,20040,20040,20040,20040,20040,20040,20040,20040,20040,20040,20040,20040,20040,20040,20040,20040,20040,20040,20040,20040,20040,20040,20040,20040,20040,19896,-8,-8,24264,24264,24264,24264,24264,24264,24264,24472,24472,24472,24472,24472,24696,24696,24472,24472,24472,24472,24264,24472,24472,24472,24472,24472,24696,24696,24472,24472,24264,24264,24048,-8,-8,-8,-8,-8,-8,-8,-8,-8,-8,-8,24264,24264,24264,24472,24472,24696,24696,24696,24696,24920,24696,24472,24264,24264,24048,24264,24048,23840,23440,23240,22120,21944,21944,21776,21776,21776,21776,21608,21776,21776,21608,21608,21608,21440,21440,21440,21272,21112,20952,20792,20792,20640,20640,20640,20480,20336,20336,20184,20184,19896,19896,19752,19752,19752,19608,19608,19608,19472,19472,19336,19200,19200,19072,19072,19072,19072,19072,18936,18936,18680,18560,18432,18432,18312,18192,18192,18072,18072,17952,17952,17840,17720,17608,17608,17608,17496,17496,17608,17496,17280,17176,16960,16960,16960,17064,-8,-8,-8,13288,13224,13224,13224,13224,13224,13160,13104,12856,12800,12800,12736,12736,12736,-8
-8,-8,-8,-8,-8,-8,-8,6736,6736,6736,6736,6752,0,0,0,0,0,0,0,0,0,0,0,0,0,0,0,0,0,0,0,0,0,0,0,0,0,0,0,0,0,0,0,0,0,0,0,0,0,0,0,0,0,0,0,0,0,0,0,0,0,0,0,0,0,0,0,0,0,0,0,0,0,0,0,0,0,0,0,0,0,0,0,0,0,0,0,0,0,0,0,0,0,0,0,0,0,0,0,0,0,0,0,0,0,0,0,0,0,0,0,0,0,0,0,0,0,0,0,0,0,0,0,0,0,0,0,0,0,0,0,0,0,0,0,0,0,0,0,0,0,0,0,0,0,0,0,0,0,0,0,0,0,0,0,0,0,0,0,0,0,0,0,0,0,0,0,0,0,0,0,0,0,0,0,0,0,0,0,0,0,0,0,0,0,0,0,0,0,0,0,0,0,0,0,0,0,0,0,0,0,0,0,0,0,0,0,0,0,0,0,0,0,0,0,0,0,0,0,0,0,0,0,0,0,0,0,0,0,0,0,0,0,0,0,0,0,0,0,0,0,0,0,0,0,0,0,0,0,0,0,0,0,0,0,0,0,0,0,0,0,0,0,0,0,0,-8,0,0,0,0,0,0,0,0,0,0,0,0,0,0,0,0,0,0,0,0,-8,-8,-8,-8,-8,-8,-8,-8,-8,-8,-8,-8,7672,7672,7672,7672,7656,7672,7656,7632,7616,7592,7592,7592,7592,7568,7592,7592,7592,7568,7552,7528,7552,7552,7528,7512,7512,7488,7488,7464,7464,7464,7464,7464,7464,7448,7448,7448,7448,7448,7448,7448,7424,7424,7448,7448,7424,7424,7424,7424,7424,7424,7408,7408,7424,7424,7424,7424,7424,7424,7448,7448,7424,7424,7424,7424,7424,7424,7424,7424,7424,7424,7424,7448,7424,7448,7448,7448,7448,7464,7464,7464,7488,7488,7488,7512,7512,7512,7528,7528,7528,7552,7552,7552,7568,7592,7592,7616,7632,7632,7656,7656,7672,7696,7720,7720,7760,7784,7808,7848,7872,7896,7944,7960,7984,7984,-8,-8,-8,-8,-8,-8,-8,-8,-8,-8,-8,-8,-8,-8,-8,-8,-8,-8,-8,-8,-8,-8,20184,20184,20184,20040,20184,20184,20184,20184,20184,20040,20040,20040,20040,20040,20040,20184,20184,20184,20184,20336,20184,20184,20040,20040,20040,20040,20040,20040,20040,20040,20040,20040,20040,20040,20040,20040,20040,20040,20040,20040,20040,20040,20184,20040,20184,20184,20040,20040,24264,24264,24264,24264,24264,24264,24264,24264,24472,24472,24472,24696,24696,24472,24696,24696,24696,24472,24472,24264,24472,24472,24472,24472,24472,24696,24696,24696,24696,24472,24264,24264,23840,-8,-8,-8,-8,-8,-8,-8,-8,-8,-8,-8,24264,24264,24264,24472,24472,24472,24696,24696,24696,24696,24920,24472,24264,24264,24264,24264,24048,24048,23640,22672,22120,21944,21944,21944,21776,21776,21776,21608,21776,21608,21608,21608,21608,21440,21440,21440,21272,21112,20952,20792,20792,20640,20640,20640,20480,20336,20336,20184,20184,19896,19896,19896,19752,19752,19608,19608,19472,19472,19472,19336,19336,19200,19072,19072,19072,19072,18936,18936,18808,18680,18560,18432,18432,18312,18192,18192,18072,18072,18072,17952,17840,17720,17608,17720,17608,17496,17608,17608,-8,-8,-8,-8,-8,-8,-8,-8,-8,-8,13224,13224,13224,13224,13224,13224,13160,13104,13104,12920,12800,12800,12736,12800,-8
-8,-8,-8,-8,-8,-8,-8,6736,6736,6736,6736,6736,0,0,0,0,0,0,0,0,0,0,0,0,0,0,0,0,0,0,0,0,0,0,0,0,0,0,0,0,0,0,0,0,0,0,0,0,0,0,0,0,0,0,0,0,0,0,0,0,0,0,0,0,0,0,0,0,0,0,0,0,0,0,0,0,0,0,0,0,0,0,0,0,0,0,0,0,0,0,0,0,0,0,0,0,0,0,0,0,0,0,0,0,0,0,0,0,0,0,0,0,0,0,0,0,0,0,0,0,0,0,0,0,0,0,0,0,0,0,0,0,0,0,0,0,0,0,0,0,0,0,0,0,0,0,0,0,0,0,0,0,0,0,0,0,0,0,0,0,0,0,0,0,0,0,0,0,0,0,0,0,0,0,0,0,0,0,0,0,0,0,0,0,0,0,0,0,0,0,0,0,0,0,0,0,0,0,0,0,0,0,0,0,0,0,0,0,0,0,0,0,0,0,0,0,0,0,0,0,0,0,0,0,0,0,0,0,0,0,0,0,0,0,0,0,0,0,0,0,0,0,0,0,0,0,0,0,0,0,0,0,0,0,0,0,0,0,0,0,0,0,0,0,0,0,0,0,0,0,0,0,0,0,0,0,0,0,0,0,0,0,0,0,0,0,0,-8,-8,-8,-8,-8,-8,-8,-8,-8,-8,-8,-8,-8,7696,7696,7672,7672,7672,7672,7656,7616,7616,7616,7616,7616,7592,7592,7592,7592,7568,7552,7552,7552,7552,7552,7528,7528,7488,7512,7488,7488,7464,7464,7464,7464,7464,7448,7464,7448,7448,7448,7448,7448,7448,7448,7448,7448,7448,7424,7448,7448,7424,7424,7424,7424,7424,7448,7424,7448,7448,7448,7448,7448,7448,7448,7448,7448,7448,7448,7448,7448,7424,7448,7448,7448,7448,7464,7464,7464,7464,7464,7488,7512,7512,7512,7528,7528,7528,7528,7528,7552,7552,7552,7568,7568,7592,7616,7616,7632,7656,7656,7672,7696,7720,7720,7744,7784,7808,7808,7848,7872,7896,7960,7984,8008,8032,-8,-8,-8,-8,-8,-8,-8,-8,-8,-8,-8,-8,-8,-8,-8,-8,-8,-8,-8,-8,-8,-8,20184,20184,20184,20184,20184,20184,20184,20184,20184,20184,20184,20184,20184,20184,20184,20184,20184,20184,20184,20336,20184,20184,20184,20040,20040,20040,20040,20040,20040,20040,20040,20040,20040,20040,20040,20040,20040,20040,20040,20040,20040,20040,20184,20040,20184,20184,20184,20184,-8,24264,24264,24264,24264,24264,24264,24264,24472,24472,24472,24696,24696,24472,24696,24696,24472,24472,24264,24264,24472,24472,24472,24472,24472,24696,24696,24696,24472,24472,24472,24264,24264,-8,-8,-8,-8,-8,-8,-8,-8,-8,-8,24264,24264,24264,24264,24472,24472,24696,24696,24920,24920,24920,24920,24696,24472,24264,24048,24264,24048,23840,23440,23240,22120,21944,21944,21944,21776,21776,21776,21608,21776,21776,21776,21608,21608,21440,21440,21272,21272,21112,20952,20792,20792,20640,20640,20640,20480,20336,20336,20184,20184,20040,19896,19896,19752,19752,19608,19608,19472,19472,19472,19336,19336,19200,19072,19072,19072,19072,18936,18936,18808,18808,18680,18560,18432,18312,18312,18192,18072,18072,18072,17952,17840,17840,17720,17720,17608,17496,17608,17720,-8,-8,-8,-8,-8,-8,-8,-8,-8,-8,13288,13288,13288,13224,13224,13224,13224,13224,13104,13160,12976,12856,12800,12856,-8
-8,-8,-8,-8,-8,-8,-8,6752,6752,6752,6752,6768,0,0,0,0,0,0,0,0,0,0,0,0,0,0,0,0,0,0,0,0,0,0,0,0,0,0,0,0,0,0,0,0,0,0,0,0,0,0,0,0,0,0,0,0,0,0,0,0,0,0,0,0,0,0,0,0,0,0,0,0,0,0,0,0,0,0,0,0,0,0,0,0,0,0,0,0,0,0,0,0,0,0,0,0,0,0,0,0,0,0,0,0,0,0,0,0,0,0,0,0,0,0,0,0,0,0,0,0,0,0,0,0,0,0,0,0,0,0,0,0,0,0,0,0,0,0,0,0,0,0,0,0,0,0,0,0,0,0,0,0,0,0,0,0,0,0,0,0,0,0,0,0,0,0,0,0,0,0,0,0,0,0,0,0,0,0,0,0,0,0,0,0,0,0,0,0,0,0,0,0,0,0,0,0,0,0,0,0,0,0,0,0,0,0,0,0,0,0,0,0,0,0,0,0,0,0,0,0,0,0,0,0,0,0,0,0,0,0,0,0,0,0,0,0,0,0,0,0,0,0,0,0,0,0,0,0,0,0,0,0,0,0,0,0,0,0,0,0,0,0,0,0,0,0,0,0,0,0,0,0,0,0,0,0,0,0,0,0,0,0,0,0,0,0,0,-8,-8,-8,-8,-8,-8,-8,-8,-8,-8,-8,-8,-8,7696,7696,7672,7672,7696,7672,7672,7632,7632,7616,7616,7616,7592,7592,7592,7568,7568,7552,7552,7552,7552,7552,7528,7528,7512,7512,7512,7488,7488,7488,7464,7464,7464,7464,7464,7464,7448,7464,7464,7448,7448,7448,7448,7448,7448,7448,7448,7448,7448,7424,7424,7448,7448,7448,7448,7448,7448,7448,7448,7448,7448,7448,7448,7448,7448,7448,7448,7448,7448,7448,7464,7448,7464,7464,7464,7464,7488,7488,7512,7528,7512,7528,7528,7528,7528,7528,7528,7552,7568,7568,7568,7592,7616,7616,7632,7632,7656,7672,7696,7696,7720,7744,7760,7784,7808,7824,7848,7872,7896,7984,7984,8008,-8,-8,-8,-8,-8,-8,-8,-8,-8,-8,-8,-8,-8,-8,-8,-8,-8,-8,-8,-8,-8,-8,-8,-8,20184,20184,20184,20184,20336,20184,20184,20184,20184,20184,20184,20184,20184,20184,20184,20184,20184,20336,20336,20336,20184,20184,20184,20040,20184,20040,20040,20184,20184,20040,20040,20040,20040,20040,20040,20040,20040,20040,20040,20184,20184,20184,20184,20184,20336,20336,20336,-8,24048,24048,24264,24264,24264,24264,24264,24472,24472,24472,24696,24696,24696,24696,24696,24696,24472,24264,24264,24264,24264,24472,24472,24472,24696,24696,24696,24696,-8,-8,-8,-8,-8,-8,-8,-8,-8,-8,-8,-8,-8,24048,24048,24264,24264,24264,24264,24472,24472,24696,24696,24920,24920,24920,24920,24472,24264,24048,24264,24048,23640,23440,23440,23440,22120,21944,21944,21776,21776,21776,21608,21776,21608,21608,21608,21440,21440,21272,21272,21112,21112,20952,20792,20792,20792,20640,20640,20480,20336,20336,20336,20184,20040,20040,19896,19752,19608,19608,19472,19472,19472,19336,19336,19336,19200,19072,19072,19072,19072,18936,18936,18936,18808,18680,18560,18432,18312,18312,18192,18072,18072,18072,17952,17952,17840,17840,17720,17608,17608,17608,17840,-8,-8,-8,-8,-8,-8,-8,-8,-8,-8,-8,13288,13288,13288,13224,13224,13224,13160,13160,13104,13160,12920,12856,12856,-8
-8,-8,-8,-8,-8,-8,-8,6752,6752,6752,6768,6768,0,0,0,0,0,0,0,0,0,0,0,0,0,0,0,0,0,0,0,0,0,0,0,0,0,0,0,0,0,0,0,0,0,0,0,0,0,0,0,0,0,0,0,0,0,0,0,0,0,0,0,0,0,0,0,0,0,0,0,0,0,0,0,0,0,0,0,0,0,0,0,0,0,0,0,0,0,0,0,0,0,0,0,0,0,0,0,0,0,0,0,0,0,0,0,0,0,0,0,0,0,0,0,0,0,0,0,0,0,0,0,0,0,0,0,0,0,0,0,0,0,0,0,0,0,0,0,0,0,0,0,0,0,0,0,0,0,0,0,0,0,0,0,0,0,0,0,0,0,0,0,0,0,0,0,0,0,0,0,0,0,0,0,0,0,0,0,0,0,0,0,0,0,0,0,0,0,0,0,0,0,0,0,0,0,0,0,0,0,0,0,0,0,0,0,0,0,0,0,0,0,0,0,0,0,0,0,0,0,0,0,0,0,0,0,0,0,0,0,0,0,0,0,0,0,0,0,0,0,0,0,0,0,0,0,0,0,0,0,0,0,0,0,0,0,0,0,0,0,0,-8,0,0,0,0,0,0,0,0,0,0,0,0,0,0,0,0,0,0,0,0,0,0,0,-8,-8,-8,-8,-8,-8,-8,-8,-8,-8,-8,-8,-8,-8,7720,7696,7696,7696,7696,7696,7672,7656,7632,7632,7632,7632,7616,7592,7592,7592,7568,7568,7552,7568,7568,7552,7552,7528,7528,7528,7512,7512,7488,7488,7488,7488,7488,7464,7488,7464,7464,7464,7464,7464,7464,7464,7448,7448,7448,7448,7448,7448,7448,7448,7448,7448,7448,7448,7448,7464,7464,7464,7464,7464,7448,7448,7448,7448,7448,7448,7448,7448,7464,7464,7464,7464,7488,7488,7488,7488,7512,7512,7528,7528,7528,7528,7528,7528,7528,7528,7528,7552,7552,7568,7592,7592,7616,7632,7632,7656,7672,7696,7696,7720,7744,7760,7784,7808,7824,7848,7872,7896,7896,7984,8008,8032,-8,-8,-8,-8,-8,-8,-8,-8,-8,-8,-8,-8,-8,-8,-8,-8,-8,-8,-8,-8,-8,-8,-8,-8,20184,20184,20184,20184,20336,20336,20336,20184,20184,20184,20184,20184,20184,20184,20336,20336,20336,20336,20336,20336,20336,20336,20040,20040,20040,20184,20184,20336,20184,20184,20040,20040,20040,20040,20040,20040,20040,20040,20040,20040,20040,20184,20184,20184,20336,-8,-8,24048,24048,24048,24048,24264,24264,24264,24264,24264,24472,24472,24696,24696,24696,24920,24920,24920,24472,24264,24264,24264,24264,24472,24472,24472,24696,24472,-8,-8,-8,-8,-8,-8,-8,-8,-8,-8,-8,-8,-8,-8,-8,24048,24048,24264,24264,24264,24264,24264,24472,24696,24696,24696,24696,24920,24696,24264,24048,24048,24048,23840,23640,23640,23440,23440,23240,22120,21944,21776,21776,21608,21608,21608,21608,21608,21440,21440,21440,21272,21272,21272,21112,20952,20792,20792,20792,20792,20640,20640,20480,20336,20336,20184,20040,20040,19896,19752,19608,19608,19472,19472,19472,19472,19472,19336,19200,19072,19072,19072,19072,18936,18936,18936,18808,18680,18560,18432,18432,18312,18192,18192,18072,18072,17952,17952,17840,17840,17608,17496,17608,17496,17952,-8,-8,-8,-8,-8,-8,-8,-8,-8,-8,13552,13352,13352,13352,13288,13288,13224,13224,13160,13160,13160,12920,12856,12856,-8
-8,-8,-8,-8,-8,-8,-8,6752,6752,6752,6768,6768,6768,0,0,0,0,0,0,0,0,0,0,0,0,0,0,0,0,0,0,0,0,0,0,0,0,0,0,0,0,0,0,0,0,0,0,0,0,0,0,0,0,0,0,0,0,0,0,0,0,0,0,0,0,0,0,0,0,0,0,0,0,0,0,0,0,0,0,0,0,0,0,0,0,0,0,0,0,0,0,0,0,0,0,0,0,0,0,0,0,0,0,0,0,0,0,0,0,0,0,0,0,0,0,0,0,0,0,0,0,0,0,0,0,0,0,0,0,0,0,0,0,0,0,0,0,0,0,0,0,0,0,0,0,0,0,0,0,0,0,0,0,0,0,0,0,0,0,0,0,0,0,0,0,0,0,0,0,0,0,0,0,0,0,0,0,0,0,0,0,0,0,0,0,0,0,0,0,0,0,0,0,0,0,0,0,0,0,0,0,0,0,0,0,0,0,0,0,0,0,0,0,0,0,0,0,0,0,0,0,0,0,0,0,0,0,0,0,0,0,0,0,0,0,0,0,0,0,0,0,0,0,0,0,0,0,0,0,0,0,0,0,0,0,0,0,0,0,0,0,-8,0,0,0,0,0,0,0,0,0,0,0,0,0,0,0,0,0,0,0,0,0,0,0,0,-8,-8,-8,-8,-8,-8,-8,-8,-8,-8,-8,-8,-8,-8,7744,7720,7696,7696,7696,7696,7672,7656,7656,7632,7632,7632,7616,7616,7592,7592,7592,7568,7568,7568,7568,7568,7552,7552,7528,7528,7528,7512,7512,7512,7488,7488,7488,7488,7488,7488,7464,7488,7488,7464,7464,7464,7464,7448,7464,7448,7464,7464,7448,7448,7464,7464,7464,7464,7464,7464,7464,7464,7464,7464,7464,7464,7464,7464,7464,7464,7464,7464,7464,7464,7488,7488,7512,7512,7512,7528,7528,7528,7528,7552,7528,7552,7552,7552,7552,7552,7552,7552,7568,7592,7616,7616,7632,7632,7656,7672,7696,7696,7720,7744,7760,7784,7808,7824,7848,7872,7872,7896,7920,7920,8008,-8,-8,-8,-8,-8,-8,-8,-8,-8,-8,-8,-8,-8,-8,-8,-8,-8,-8,-8,-8,-8,-8,-8,-8,20184,20336,20336,20336,20336,20336,20336,20336,20336,20184,20336,20184,20336,20184,20336,20336,20336,20336,20336,20336,20336,20336,20336,20336,20040,20040,20040,20336,20336,20336,20184,20184,20184,20040,20184,20040,20040,20040,20040,20040,20184,20184,20184,20184,20184,20184,20184,-8,24048,24048,23840,24048,24048,24048,24264,24264,24264,24472,24472,24472,24472,24696,24696,24696,24696,24264,24264,24264,24264,24264,24264,24264,24264,24472,24472,-8,-8,-8,-8,-8,-8,-8,-8,-8,-8,-8,-8,-8,-8,-8,24048,24048,24264,24264,24264,24264,24264,24472,24696,24696,24696,24696,24696,24696,24264,24048,24048,24048,23840,23440,23440,23440,23240,23048,22672,22120,21944,21776,21776,21608,21608,21608,21608,21440,21440,21440,21272,21272,21272,21112,20952,20792,20792,20792,20792,20792,20640,20480,20336,20336,20184,20040,19896,19896,19752,19608,19608,19608,19472,19472,19472,19472,19336,19200,19200,19072,19072,18936,18936,18936,18808,18808,18808,18680,18560,18432,18312,18312,18192,18192,18192,18072,18072,17952,17840,17608,17608,17496,17608,17608,-8,-8,-8,-8,-8,-8,-8,-8,-8,13616,13616,13416,13352,13352,13352,13352,13288,13288,13288,13224,13224,13104,12920,12856,-8
-8,-8,-8,-8,-8,-8,-8,6768,6768,6768,6792,6792,0,0,0,0,0,0,0,0,0,0,0,0,0,0,0,0,0,0,0,0,0,0,0,0,0,0,0,0,0,0,0,0,0,0,0,0,0,0,0,0,0,0,0,0,0,0,0,0,0,0,0,0,0,0,0,0,0,0,0,0,0,0,0,0,0,0,0,0,0,0,0,0,0,0,0,0,0,0,0,0,0,0,0,0,0,0,0,0,0,0,0,0,0,0,0,0,0,0,0,0,0,0,0,0,0,0,0,0,0,0,0,0,0,0,0,0,0,0,0,0,0,0,0,0,0,0,0,0,0,0,0,0,0,0,0,0,0,0,0,0,0,0,0,0,0,0,0,0,0,0,0,0,0,0,0,0,0,0,0,0,0,0,0,0,0,0,0,0,0,0,0,0,0,0,0,0,0,0,0,0,0,0,0,0,0,0,0,0,0,0,0,0,0,0,0,0,0,0,0,0,0,0,0,0,0,0,0,0,0,0,0,0,0,0,0,0,0,0,0,0,0,0,0,0,0,0,0,0,0,0,0,0,0,0,0,0,0,0,0,0,0,0,0,0,0,0,0,0,0,0,0,0,0,0,0,0,0,0,0,0,0,0,0,0,0,0,0,0,0,0,0,0,0,-8,-8,-8,-8,-8,-8,-8,-8,-8,-8,-8,-8,-8,-8,-8,7744,7720,7696,7696,7720,7696,7672,7656,7656,7632,7632,7632,7616,7616,7616,7616,7616,7592,7592,7592,7592,7568,7568,7552,7552,7552,7528,7528,7512,7512,7512,7512,7512,7512,7512,7512,7488,7488,7488,7488,7488,7464,7464,7464,7464,7464,7464,7464,7464,7464,7464,7464,7464,7464,7464,7464,7464,7464,7464,7464,7464,7464,7464,7464,7464,7464,7464,7464,7464,7488,7488,7512,7512,7528,7528,7528,7528,7528,7552,7552,7552,7552,7552,7552,7552,7552,7552,7568,7592,7616,7616,7632,7632,7656,7656,7672,7696,7720,7720,7744,7784,7784,7808,7824,7848,7872,7896,7920,7920,7960,8032,-8,-8,-8,-8,-8,-8,-8,-8,-8,-8,-8,-8,-8,-8,-8,-8,-8,-8,-8,-8,-8,-8,-8,-8,20184,20336,20336,20336,20336,20336,20336,20336,20336,20336,20336,20336,20336,20336,20336,20336,20336,20336,20336,20336,20336,20336,20336,20336,20040,20184,20336,20336,20336,20336,20336,20184,20184,20184,20184,20184,20040,20184,20184,20184,20184,20184,20336,20184,20184,20184,20184,23840,23840,23840,23840,24048,24048,24048,24048,24048,24264,24264,24472,24472,24264,24472,24472,24472,24264,24264,24048,24048,24048,24048,24048,24264,24264,24264,24264,-8,-8,-8,-8,-8,-8,-8,-8,-8,-8,-8,-8,-8,-8,23840,24048,24048,24048,24048,24048,24264,24264,24264,24472,24264,24264,24264,24264,24048,23840,23840,23840,23840,23640,23440,23440,23440,23240,23048,23048,22480,21944,21776,21776,21608,21608,21608,21608,21440,21440,21440,21440,21272,21272,21112,20952,20792,20792,20792,20792,20640,20640,20480,20336,20184,20184,20040,20040,19896,19896,19608,19608,19472,19472,19472,19472,19472,19336,19200,19072,19072,19072,18936,18936,18808,18808,18808,18560,18432,18432,18432,18312,18192,18192,18192,18192,18192,18072,17952,17952,17952,17608,17608,17608,18072,-8,-8,-8,-8,-8,-8,-8,-8,13616,13688,13616,13552,13552,13416,13416,13416,13288,13224,13224,13160,13160,13040,12976,12920,-8
-8,-8,-8,-8,-8,-8,-8,6768,6768,6792,6792,0,0,0,0,0,0,0,0,0,0,0,0,0,0,0,0,0,0,0,0,0,0,0,0,0,0,0,0,0,0,0,0,0,0,0,0,0,0,0,0,0,0,0,0,0,0,0,0,0,0,0,0,0,0,0,0,0,0,0,0,0,0,0,0,0,0,0,0,0,0,0,0,0,0,0,0,0,0,0,0,0,0,0,0,0,0,0,0,0,0,0,0,0,0,0,0,0,0,0,0,0,0,0,0,0,0,0,0,0,0,0,0,0,0,0,0,0,0,0,0,0,0,0,0,0,0,0,0,0,0,0,0,0,0,0,0,0,0,0,0,0,0,0,0,0,0,0,0,0,0,0,0,0,0,0,0,0,0,0,0,0,0,0,0,0,0,0,0,0,0,0,0,0,0,0,0,0,0,0,0,0,0,0,0,0,0,0,0,0,0,0,0,0,0,0,0,0,0,0,0,0,0,0,0,0,0,0,0,0,0,0,0,0,0,0,0,0,0,0,0,0,0,0,0,0,0,0,0,0,0,0,0,0,0,0,0,0,0,0,0,0,0,0,0,0,0,0,0,0,0,0,0,0,0,0,0,0,0,0,0,0,0,0,0,0,0,0,0,0,0,0,0,0,0,-8,-8,-8,-8,-8,-8,-8,-8,-8,-8,-8,-8,-8,-8,-8,7760,7744,7720,7720,7720,7696,7672,7672,7656,7632,7632,7632,7632,7616,7616,7616,7616,7616,7592,7592,7616,7592,7592,7568,7552,7552,7552,7528,7528,7528,7528,7528,7528,7528,7528,7512,7512,7512,7512,7512,7488,7488,7488,7488,7488,7464,7464,7464,7464,7464,7464,7464,7464,7464,7464,7464,7488,7488,7488,7488,7488,7488,7488,7488,7464,7488,7464,7488,7488,7488,7512,7512,7528,7528,7528,7528,7528,7552,7552,7552,7552,7552,7552,7568,7568,7568,7592,7592,7616,7616,7632,7632,7656,7672,7672,7672,7696,7720,7744,7784,7808,7808,7824,7848,7872,7896,7920,7960,7984,8032,8032,-8,-8,-8,-8,-8,-8,-8,-8,-8,-8,-8,-8,-8,-8,-8,-8,-8,-8,-8,-8,-8,-8,-8,-8,-8,20336,20336,20336,20336,20480,20480,20480,20336,20336,20336,20336,20336,20336,20336,20336,20336,20480,20336,20336,20336,20336,20336,20336,20336,20336,20480,20480,20480,20336,20336,20336,20336,20184,20184,20336,20184,20184,20184,20184,20336,20336,20336,20184,20184,20040,-8,-8,23840,23840,23840,24048,24048,24048,24048,24048,24264,24264,24264,24264,24264,24264,24264,24264,24264,24264,24048,24048,24048,24048,24048,24264,24264,24048,24048,-8,-8,-8,-8,-8,-8,-8,-8,-8,-8,-8,-8,-8,-8,23840,24048,24048,24048,24048,24048,24264,24264,24264,24264,24048,24048,24048,24048,23840,23840,23640,23840,23640,23440,23440,23440,23440,23240,23240,23240,23240,23048,21944,21776,21608,21608,21608,21440,21440,21440,21440,21440,21272,21272,21112,20952,20792,20792,20640,20640,20640,20480,20336,20184,20184,20184,20040,20040,20040,19896,19752,19608,19472,19472,19472,19472,19472,19336,19200,19072,19072,19072,18936,18808,18808,18808,18560,18560,18432,18432,18432,18192,18312,18192,18192,18192,18192,18072,17952,17952,17952,17840,17840,17840,-8,-8,-8,-8,-8,-8,-8,-8,-8,-8,13616,13616,13552,13488,13552,13488,13488,13288,13224,13224,13160,13104,13104,12976,12976,-8
-8,-8,-8,-8,-8,-8,-8,6792,6792,6792,6808,6808,6824,6840,0,0,0,0,0,0,0,0,0,0,0,0,0,0,0,0,0,0,0,0,0,0,0,0,0,0,0,0,0,0,0,0,0,0,0,0,0,0,0,0,0,0,0,0,0,0,0,0,0,0,0,0,0,0,0,0,0,0,0,0,0,0,0,0,0,0,0,0,0,0,0,0,0,0,0,0,0,0,0,0,0,0,0,0,0,0,0,0,0,0,0,0,0,0,0,0,0,0,0,0,0,0,0,0,0,0,0,0,0,0,0,0,0,0,0,0,0,0,0,0,0,0,0,0,0,0,0,0,0,0,0,0,0,0,0,0,0,0,0,0,0,0,0,0,0,0,0,0,0,0,0,0,0,0,0,0,0,0,0,0,0,0,0,0,0,0,0,0,0,0,0,0,0,0,0,0,0,0,0,0,0,0,0,0,0,0,0,0,0,0,0,0,0,0,0,0,0,0,0,0,0,0,0,0,0,0,0,0,0,0,0,0,0,0,0,0,0,0,0,0,0,0,0,0,0,0,0,0,0,0,0,0,0,0,0,0,0,0,0,0,0,0,0,0,0,0,0,0,0,0,0,0,0,0,0,0,0,0,0,0,0,0,0,0,0,0,0,0,0,0,0,-8,-8,-8,-8,-8,-8,-8,-8,-8,-8,-8,-8,-8,-8,-8,7760,7744,7720,7720,7720,7696,7696,7672,7672,7656,7656,7632,7632,7616,7616,7616,7616,7616,7592,7616,7616,7616,7592,7568,7568,7552,7552,7552,7552,7528,7528,7528,7528,7528,7528,7528,7528,7512,7512,7512,7512,7488,7488,7488,7488,7488,7488,7488,7488,7488,7488,7488,7488,7488,7488,7488,7488,7488,7512,7512,7512,7512,7512,7512,7488,7488,7488,7488,7512,7512,7512,7528,7528,7528,7552,7552,7552,7552,7552,7568,7568,7568,7568,7592,7592,7592,7616,7616,7632,7632,7656,7656,7672,7672,7672,7696,7720,7720,7760,7784,7808,7808,7824,7848,7872,7920,7920,7984,7984,8032,-8,-8,-8,-8,-8,-8,-8,-8,-8,-8,-8,-8,-8,-8,-8,-8,-8,-8,-8,-8,-8,-8,-8,-8,-8,-8,20336,20336,20336,20336,20480,20480,20480,20480,20336,20336,20480,20480,20480,20336,20480,20336,20480,20336,20336,20336,20336,20336,20336,20480,20480,20480,20480,20480,20480,20336,20336,20336,20336,20336,20336,20336,20336,20336,20336,20480,20480,20480,20336,20336,20336,-8,23840,23840,23840,23840,23840,24048,23840,24048,24048,24048,24048,24264,24048,24048,24264,24048,24048,24048,24048,24048,24048,24048,24048,24048,24048,24048,24048,-8,-8,-8,-8,-8,-8,-8,-8,-8,-8,-8,-8,-8,23440,23640,23640,24048,24048,24048,24048,24048,24048,24048,24264,24048,24048,24048,24048,24048,23840,23640,23640,23840,23640,23440,23440,23440,23440,23440,23440,23240,23240,23240,22120,21776,21608,21608,21608,21440,21440,21440,21272,21272,21272,21112,20952,20952,20792,20640,20640,20640,20480,20336,20184,20184,20184,20040,20040,20040,19896,19896,19752,19608,19472,19472,19472,19472,19472,19336,19336,19200,19200,19072,18936,18808,18680,18680,18680,18560,18432,18312,18192,18192,18192,18192,18192,18192,18072,18072,17952,17952,17952,17840,17840,17840,18072,-8,-8,17280,17280,-8,-8,-8,-8,13616,13616,13552,13552,13488,13488,13416,13416,13288,13288,13224,13160,13160,13040,12976,12976,-8
-8,-8,-8,-8,-8,-8,-8,6792,6792,6792,6808,6808,6824,6840,6840,6840,0,0,0,0,0,0,0,0,0,0,0,0,0,0,0,0,0,0,0,0,0,0,0,0,0,0,0,0,0,0,0,0,0,0,0,0,0,0,0,0,0,0,0,0,0,0,0,0,0,0,0,0,0,0,0,0,0,0,0,0,0,0,0,0,0,0,0,0,0,0,0,0,0,0,0,0,0,0,0,0,0,0,0,0,0,0,0,0,0,0,0,0,0,0,0,0,0,0,0,0,0,0,0,0,0,0,0,0,0,0,0,0,0,0,0,0,0,0,0,0,0,0,0,0,0,0,0,0,0,0,0,0,0,0,0,0,0,0,0,0,0,0,0,0,0,0,0,0,0,0,0,0,0,0,0,0,0,0,0,0,0,0,0,0,0,0,0,0,0,0,0,0,0,0,0,0,0,0,0,0,0,0,0,0,0,0,0,0,0,0,0,0,0,0,0,0,0,0,0,0,0,0,0,0,0,0,0,0,0,0,0,0,0,0,0,0,0,0,0,0,0,0,0,0,0,0,0,0,0,0,0,0,0,0,0,0,0,0,0,0,0,0,0,0,0,0,0,0,0,0,0,0,0,0,0,0,0,0,0,0,0,0,0,0,0,0,0,0,0,-8,-8,-8,-8,-8,-8,-8,-8,-8,-8,-8,-8,-8,-8,-8,7760,7744,7744,7720,7720,7720,7696,7696,7672,7672,7656,7656,7632,7616,7616,7616,7616,7616,7592,7616,7616,7616,7616,7592,7568,7568,7552,7552,7552,7552,7552,7552,7528,7528,7528,7528,7528,7528,7512,7512,7512,7512,7488,7488,7512,7488,7512,7488,7488,7488,7488,7512,7512,7512,7512,7512,7512,7512,7512,7512,7528,7528,7512,7512,7512,7512,7488,7512,7512,7512,7528,7528,7552,7552,7552,7552,7552,7568,7568,7568,7568,7592,7592,7616,7616,7616,7616,7616,7632,7632,7656,7672,7672,7696,7696,7696,7720,7720,7760,7808,7808,7824,7824,7872,7896,7920,7960,7984,7984,8032,-8,-8,-8,-8,-8,-8,-8,-8,-8,-8,-8,-8,-8,-8,-8,-8,-8,-8,-8,-8,-8,-8,-8,-8,-8,-8,20336,20336,20480,20480,20480,20480,20480,20480,20336,20336,20480,20480,20480,20336,20336,20336,20480,20480,20336,20336,20336,20480,20480,20480,20480,20480,20480,20480,20480,20480,20336,20336,20336,20336,20336,20336,20336,20336,20336,20480,20480,20480,20480,20480,20336,-8,23840,23840,23840,23840,23840,23840,23840,23840,23840,24048,24048,24048,24048,23840,24048,23840,23840,23840,24048,23840,24048,24048,24048,24048,24048,24048,24048,24048,23640,-8,-8,-8,-8,-8,-8,-8,-8,-8,-8,23640,23640,23640,23840,24048,24048,24048,24048,24048,24048,24048,24048,24048,24048,24048,23840,23840,23640,23440,23640,23640,23640,23440,23440,23440,23440,23440,23440,23440,23440,23240,23440,21944,21776,21608,21608,21440,21440,21440,21272,21272,21272,21112,20952,20952,20792,20640,20640,20640,20480,20336,20184,20184,20184,20040,20040,19896,19896,19896,19752,19608,19472,19472,19472,19472,19336,19336,19200,19072,19072,18936,18808,18808,18680,18680,18680,18560,18432,18312,18312,18192,18192,18192,18072,18192,18192,18072,17952,17952,17952,17840,17840,17840,17608,17608,17496,17496,17392,-8,-8,-8,-8,13616,13616,13552,13552,13488,13488,13488,13416,13288,13288,13224,13160,13160,13040,12976,12976,-8
-8,-8,-8,-8,-8,-8,-8,6792,6808,6808,6824,6824,6840,6856,6872,6856,6856,0,0,0,0,0,0,0,0,0,0,0,0,0,0,0,0,0,0,0,0,0,0,0,0,0,0,0,0,0,0,0,0,0,0,0,0,0,0,0,0,0,0,0,0,0,0,0,0,0,0,0,0,0,0,0,0,0,0,0,0,0,0,0,0,0,0,0,0,0,0,0,0,0,0,0,0,0,0,0,0,0,0,0,0,0,0,0,0,0,0,0,0,0,0,0,0,0,0,0,0,0,0,0,0,0,0,0,0,0,0,0,0,0,0,0,0,0,0,0,0,0,0,0,0,0,0,0,0,0,0,0,0,0,0,0,0,0,0,0,0,0,0,0,0,0,0,0,0,0,0,0,0,0,0,0,0,0,0,0,0,0,0,0,0,0,0,0,0,0,0,0,0,0,0,0,0,0,0,0,0,0,0,0,0,0,0,0,0,0,0,0,0,0,0,0,0,0,0,0,0,0,0,0,0,0,0,0,0,0,0,0,0,0,0,0,0,0,0,0,0,0,0,0,0,0,0,0,0,0,0,0,0,0,0,0,0,0,0,0,-8,0,0,0,0,0,0,0,0,0,0,0,0,0,0,0,0,0,0,0,0,0,0,0,0,0,0,0,0,-8,-8,-8,-8,-8,-8,-8,-8,-8,-8,-8,-8,-8,-8,7760,7784,7760,7760,7744,7744,7720,7696,7696,7696,7672,7672,7672,7656,7632,7616,7616,7616,7616,7616,7632,7632,7616,7616,7592,7568,7568,7552,7552,7552,7552,7552,7552,7552,7552,7552,7528,7528,7528,7528,7512,7512,7528,7512,7512,7512,7512,7512,7512,7512,7512,7512,7512,7512,7512,7512,7512,7528,7528,7528,7528,7528,7528,7528,7528,7528,7528,7528,7528,7528,7528,7528,7528,7552,7552,7552,7552,7568,7568,7568,7592,7568,7592,7592,7616,7616,7632,7632,7632,7656,7656,7672,7672,7696,7720,7696,7720,7744,7744,7808,7824,7848,7848,7848,7872,7896,7944,7960,8008,8008,-8,-8,-8,-8,-8,-8,-8,-8,-8,-8,-8,-8,-8,-8,-8,-8,-8,-8,-8,-8,-8,-8,-8,-8,-8,-8,-8,20336,20336,20480,20480,20480,20480,20480,20480,20480,20336,20480,20480,20480,20336,20336,20336,20480,20480,20336,20336,20480,20480,20480,20480,20480,20480,20480,20480,20480,20480,20480,20480,20336,20336,20336,20336,20336,20480,20480,20480,20480,20480,20480,19752,19752,-8,23840,23840,23840,23840,23840,23840,23840,23840,23840,23840,23840,23840,23840,23840,23840,23640,23840,23840,23840,23840,24048,24048,24048,24048,24048,24048,24048,24048,24048,24048,-8,-8,-8,-8,-8,23840,-8,-8,-8,23640,23640,23640,23640,23840,23840,24048,24048,24048,24048,24048,24048,24048,23840,23840,23640,23640,23440,23440,23440,23640,23640,23440,23440,23440,23640,23440,23440,23440,23440,23240,23240,22856,22672,21608,21608,21440,21440,21272,21272,21272,21272,21112,21112,20952,20792,20640,20640,20640,20480,20336,20184,20184,20184,20040,20040,19896,19896,19896,19752,19608,19472,19472,19472,19472,19336,19336,19200,19072,19072,18936,18808,18680,18680,18680,18680,18560,18432,18312,18312,18072,18072,18072,18072,18072,18072,18072,17952,18072,17952,17840,17840,17952,17608,17608,17496,17392,17392,-8,-8,-8,-8,13616,13616,13552,13552,13488,13488,13488,13416,13416,13352,13288,13224,13160,13104,12976,12920,-8
-8,-8,-8,-8,-8,-8,-8,6792,6808,6808,6824,6824,6840,6856,6872,6856,6888,6872,6904,6904,6888,0,0,0,0,0,0,0,0,0,0,0,0,0,0,0,0,0,0,0,0,0,0,0,0,0,0,0,0,0,0,0,0,0,0,0,0,0,0,0,0,0,0,0,0,0,0,0,0,0,0,0,0,0,0,0,0,0,0,0,0,0,0,0,0,0,0,0,0,0,0,0,0,0,0,0,0,0,0,0,0,0,0,0,0,0,0,0,0,0,0,0,0,0,0,0,0,0,0,0,0,0,0,0,0,0,0,0,0,0,0,0,0,0,0,0,0,0,0,0,0,0,0,0,0,0,0,0,0,0,0,0,0,0,0,0,0,0,0,0,0,0,0,0,0,0,0,0,0,0,0,0,0,0,0,0,0,0,0,0,0,0,0,0,0,0,0,0,0,0,0,0,0,0,0,0,0,0,0,0,0,0,0,0,0,0,0,0,0,0,0,0,0,0,0,0,0,0,0,0,0,0,0,0,0,0,0,0,0,0,0,0,0,0,0,0,0,0,0,0,0,0,0,0,0,0,0,0,0,0,0,0,0,0,0,0,0,0,0,0,0,0,0,0,0,0,0,0,0,0,0,0,0,0,0,0,0,0,0,0,0,0,0,0,0,-8,-8,-8,-8,-8,-8,-8,-8,-8,-8,-8,-8,-8,-8,7760,7784,7784,7784,7760,7760,7720,7720,7696,7696,7696,7672,7672,7672,7656,7632,7632,7616,7616,7616,7632,7632,7632,7616,7616,7592,7592,7568,7568,7552,7552,7552,7552,7552,7552,7552,7552,7552,7552,7528,7528,7528,7528,7528,7528,7528,7528,7528,7528,7528,7528,7528,7528,7528,7528,7528,7528,7528,7528,7528,7528,7528,7528,7528,7552,7528,7552,7528,7528,7528,7528,7528,7552,7552,7552,7552,7552,7568,7568,7592,7592,7592,7616,7616,7632,7632,7632,7656,7656,7672,7672,7696,7696,7696,7720,7720,7720,7744,7760,7808,7824,7848,7872,7872,7896,7944,7960,7984,8032,8032,8056,-8,-8,-8,-8,-8,-8,-8,-8,-8,-8,-8,-8,-8,-8,-8,-8,-8,-8,-8,-8,-8,-8,-8,-8,-8,-8,20480,20480,20480,20480,20480,20480,20480,20480,20480,20480,20480,20480,20480,20480,20480,20336,20480,20480,20480,20480,20480,20480,20480,20480,20480,20480,20480,20480,20480,20480,20480,20480,20480,20480,20480,20480,20480,20480,20480,20480,20480,20480,20480,20480,20640,20640,-8,23840,23840,23840,23840,23640,23640,23840,23640,23840,23840,23840,23840,23840,23840,23440,23840,23840,23840,23840,24048,24048,24048,24048,24048,24048,24048,24048,24048,24048,-8,-8,-8,-8,24048,23840,23840,23840,24048,23840,23840,23840,23640,23840,23840,23840,23840,23840,23840,24048,23840,23840,23840,23840,23640,23640,23440,23440,23440,23640,23640,23440,23440,23440,23640,23440,23440,23440,23440,23440,23240,23048,23048,22856,21608,21440,21440,21440,21272,21272,21272,21112,20952,20952,20792,20640,20640,20640,20336,20336,20184,20184,20184,20040,20040,20040,19896,19896,19752,19608,19608,19472,19472,19472,19336,19336,19200,19072,18936,18936,18808,18680,18680,18680,18680,18560,18560,18432,18312,17952,18072,18072,18072,18072,18192,18072,18072,18072,18072,18072,18072,18072,17720,-8,-8,-8,-8,-8,-8,-8,-8,13616,13616,13552,13552,13552,13488,13488,13416,13488,13416,13352,13224,13160,13160,12976,12920,-8
-8,-8,-8,-8,-8,-8,-8,6808,6808,6824,6824,6840,6856,6856,6888,6888,6888,6888,6888,6888,6888,-8,0,0,0,0,0,0,0,0,0,0,0,0,0,0,0,0,0,0,0,0,0,0,0,0,0,0,0,0,0,0,0,0,0,0,0,0,0,0,0,0,0,0,0,0,0,0,0,0,0,0,0,0,0,0,0,0,0,0,0,0,0,0,0,0,0,0,0,0,0,0,0,0,0,0,0,0,0,0,0,0,0,0,0,0,0,0,0,0,0,0,0,0,0,0,0,0,0,0,0,0,0,0,0,0,0,0,0,0,0,0,0,0,0,0,0,0,0,0,0,0,0,0,0,0,0,0,0,0,0,0,0,0,0,0,0,0,0,0,0,0,0,0,0,0,0,0,0,0,0,0,0,0,0,0,0,0,0,0,0,0,0,0,0,0,0,0,0,0,0,0,0,0,0,0,0,0,0,0,0,0,0,0,0,0,0,0,0,0,0,0,0,0,0,0,0,0,0,0,0,0,0,0,0,0,0,0,0,0,0,0,0,0,0,0,0,0,0,0,0,0,0,0,0,0,0,0,0,0,0,0,0,0,0,0,0,0,0,0,0,0,0,0,0,0,0,0,0,0,0,0,0,0,0,0,0,0,0,0,0,0,0,0,0,-8,-8,-8,-8,-8,-8,-8,-8,-8,-8,-8,-8,-8,-8,7784,7808,7784,7808,7784,7760,7744,7720,7720,7696,7696,7672,7672,7672,7656,7656,7656,7632,7632,7616,7632,7632,7632,7616,7616,7616,7592,7568,7568,7568,7568,7552,7568,7552,7552,7552,7552,7552,7552,7528,7528,7528,7528,7528,7528,7528,7528,7528,7528,7528,7528,7528,7528,7528,7528,7528,7528,7528,7528,7552,7528,7552,7552,7552,7552,7552,7552,7552,7552,7528,7528,7552,7552,7552,7552,7568,7568,7568,7592,7592,7616,7616,7616,7616,7632,7632,7632,7656,7656,7672,7696,7696,7720,7720,7744,7744,7744,7784,7784,7824,7848,7872,7896,7896,7920,7960,7984,8008,8032,8056,8056,-8,-8,-8,-8,-8,-8,-8,-8,-8,-8,-8,-8,-8,-8,-8,-8,-8,-8,-8,-8,-8,-8,-8,-8,-8,20336,20480,20480,20480,20480,20480,20480,20480,20480,20480,20480,20480,20480,20480,20480,20480,20480,20480,20480,20480,20480,20480,20480,20480,20480,20480,20480,20480,20480,20336,20480,20480,20480,20480,20480,20480,20480,20480,20480,20480,20480,20640,20640,20640,20640,20640,-8,-8,-8,23840,23840,23840,23840,23840,23840,23640,23840,23840,23640,23640,23640,23640,23440,23440,-8,23840,23840,23840,24048,24048,24048,24048,24048,24048,24048,24048,-8,-8,-8,-8,-8,23840,23840,23640,23840,23840,23840,23840,23640,23640,23640,23840,23840,23840,23840,23840,23840,23840,23840,23640,23640,23440,23440,23440,23440,23440,23440,23440,23440,23440,23440,23640,23440,23440,23440,23440,23440,23440,23240,23240,22856,21608,21440,21440,21440,21272,21272,21112,21112,20952,20792,20792,20640,20640,20480,20336,20184,20184,20184,20184,20184,20040,20040,20040,19896,19752,19608,19608,19472,19472,19472,19336,19336,19200,19072,19072,18936,18808,18680,18680,18560,18680,18560,18432,-8,-8,17952,17952,17952,18072,18072,18072,18072,18072,18192,18072,17952,17952,17952,-8,-8,-8,-8,-8,-8,-8,-8,13688,13688,13688,13616,13552,13488,13488,13488,13416,13416,13352,13288,13160,13160,13160,13040,12976,-8
-8,-8,-8,-8,-8,-8,-8,6824,6824,6840,6840,6856,6872,6888,6904,6888,6888,6888,6888,6888,6888,0,0,0,0,0,0,0,0,0,0,0,0,0,0,0,0,0,0,0,0,0,0,0,0,0,0,0,0,0,0,0,0,0,0,0,0,0,0,0,0,0,0,0,0,0,0,0,0,0,0,0,0,0,0,0,0,0,0,0,0,0,0,0,0,0,0,0,0,0,0,0,0,0,0,0,0,0,0,0,0,0,0,0,0,0,0,0,0,0,0,0,0,0,0,0,0,0,0,0,0,0,0,0,0,0,0,0,0,0,0,0,0,0,0,0,0,0,0,0,0,0,0,0,0,0,0,0,0,0,0,0,0,0,0,0,0,0,0,0,0,0,0,0,0,0,0,0,0,0,0,0,0,0,0,0,0,0,0,0,0,0,0,0,0,0,0,0,0,0,0,0,0,0,0,0,0,0,0,0,0,0,0,0,0,0,0,0,0,0,0,0,0,0,0,0,0,0,0,0,0,0,0,0,0,0,0,0,0,0,0,0,0,0,0,0,0,0,0,0,0,0,0,0,0,0,0,0,0,0,0,0,0,0,0,0,0,0,0,0,0,0,0,0,0,0,0,0,0,0,0,0,0,0,0,0,0,0,0,0,0,0,0,0,0,0,0,-8,-8,-8,-8,-8,-8,-8,-8,-8,-8,-8,-8,7824,7824,7808,7808,7808,7784,7760,7744,7744,7720,7720,7696,7696,7696,7696,7672,7656,7656,7632,7616,7632,7632,7632,7632,7616,7616,7616,7592,7592,7592,7568,7568,7568,7568,7568,7552,7552,7552,7552,7552,7552,7552,7552,7528,7528,7528,7528,7528,7528,7528,7528,7528,7528,7528,7528,7552,7552,7552,7528,7552,7552,7552,7552,7552,7552,7552,7552,7552,7552,7552,7552,7552,7552,7552,7568,7568,7592,7592,7616,7616,7632,7632,7632,7632,7632,7656,7656,7672,7672,7696,7720,7720,7720,7744,7760,7760,7760,7808,7808,7848,7872,7896,7920,7896,7944,7960,7984,8008,8032,8056,-8,-8,-8,-8,-8,-8,-8,-8,-8,-8,-8,-8,-8,-8,-8,-8,-8,-8,-8,-8,-8,-8,-8,-8,-8,-8,20336,20480,20480,20480,20480,20480,20480,20480,20480,20480,20480,20480,20480,20480,20480,20480,20480,20480,20480,20480,20480,20480,20480,20480,20480,20480,20480,20336,20480,20336,20480,20480,20480,20480,20480,20480,20480,20480,20480,20480,20640,20640,20480,20480,20480,20640,-8,-8,-8,-8,24048,24048,23840,23840,23840,23840,23840,23840,23840,23840,-8,-8,-8,-8,-8,-8,23840,23840,24048,24048,24048,24048,24048,24048,-8,-8,-8,-8,-8,-8,-8,23840,23840,23640,23640,23840,23840,23640,23640,23440,23440,23640,23640,23640,23640,23640,23640,23840,23840,23640,23640,23440,23440,23440,23440,23440,23440,23440,23440,23440,23440,23440,23440,23440,23440,23440,23440,23440,23240,23240,23440,22856,21608,21608,21440,21272,21272,21112,20952,20952,20792,20792,20640,20640,20480,20336,20184,20184,20184,20184,20040,20040,20040,19896,19896,19752,19608,19608,19472,19472,19472,19472,19336,19200,19072,19072,18936,18808,18680,18560,18560,18560,-8,-8,-8,-8,17720,17840,17840,17952,17952,18072,17952,17952,18072,17952,17840,17840,17952,-8,-8,-8,-8,-8,-8,-8,-8,13688,13688,13688,13552,13552,13488,13416,13488,13416,13416,13352,13288,13224,13160,13104,13040,12976,-8
-8,-8,-8,-8,-8,-8,-8,6824,6840,6856,6856,6872,6888,6888,6904,6888,6888,6888,6904,-8,0,0,0,0,0,0,0,0,0,0,0,0,0,0,0,0,0,0,0,0,0,0,0,0,0,0,0,0,0,0,0,0,0,0,0,0,0,0,0,0,0,0,0,0,0,0,0,0,0,0,0,0,0,0,0,0,0,0,0,0,0,0,0,0,0,0,0,0,0,0,0,0,0,0,0,0,0,0,0,0,0,0,0,0,0,0,0,0,0,0,0,0,0,0,0,0,0,0,0,0,0,0,0,0,0,0,0,0,0,0,0,0,0,0,0,0,0,0,0,0,0,0,0,0,0,0,0,0,0,0,0,0,0,0,0,0,0,0,0,0,0,0,0,0,0,0,0,0,0,0,0,0,0,0,0,0,0,0,0,0,0,0,0,0,0,0,0,0,0,0,0,0,0,0,0,0,0,0,0,0,0,0,0,0,0,0,0,0,0,0,0,0,0,0,0,0,0,0,0,0,0,0,0,0,0,0,0,0,0,0,0,0,0,0,0,0,0,0,0,0,0,0,0,0,0,0,0,0,0,0,0,0,0,0,0,0,0,0,0,0,0,0,0,0,0,0,0,0,0,0,0,0,0,0,0,0,0,0,0,0,0,0,0,0,0,0,0,-8,-8,-8,-8,-8,-8,-8,-8,-8,-8,-8,-8,7824,7824,7824,7824,7824,7808,7784,7760,7760,7744,7744,7720,7720,7720,7696,7696,7672,7672,7656,7632,7656,7656,7632,7632,7632,7632,7616,7616,7616,7592,7592,7568,7592,7568,7552,7552,7568,7568,7568,7568,7552,7552,7552,7552,7552,7552,7552,7552,7552,7552,7552,7552,7552,7552,7552,7552,7552,7552,7552,7552,7552,7552,7552,7552,7552,7552,7552,7568,7552,7552,7552,7552,7568,7568,7568,7592,7592,7616,7632,7632,7632,7632,7632,7656,7656,7656,7672,7696,7696,7720,7720,7720,7744,7760,7784,7784,7784,7808,7808,7848,7872,7896,7920,7896,7960,7960,7984,8008,8032,-8,-8,-8,-8,-8,-8,-8,-8,-8,-8,-8,-8,-8,-8,-8,-8,-8,-8,-8,-8,-8,-8,-8,-8,-8,-8,-8,20336,20336,20480,20480,20480,20480,20480,20640,20640,20640,20480,20480,20480,20480,20480,20480,20480,20480,20480,20480,20480,20480,20480,20480,20480,20480,20480,20336,20480,20480,20480,20480,20480,20480,20480,20480,20480,20480,20480,20480,20640,20480,20480,20480,20480,20640,-8,-8,-8,-8,-8,23840,23640,23640,23640,23640,23640,23840,-8,-8,-8,-8,-8,-8,-8,-8,23840,24048,-8,24048,24048,24048,24048,-8,-8,-8,-8,-8,-8,-8,-8,23840,23640,23640,23640,23640,23640,23440,23440,23440,23440,23440,23440,23640,23640,23640,23640,23840,23840,23640,23640,23440,23440,23440,23440,23440,23440,23440,23440,23440,23440,23440,23440,23440,23440,23440,23440,23440,23240,23240,23240,22856,22856,21608,21440,21272,21112,21112,20952,20792,20792,20792,20640,20640,20480,20184,20184,20040,20184,20184,20184,20040,20040,20040,20040,19896,19752,19752,19608,19608,19472,19472,19336,19336,19072,19200,18936,18680,18560,18560,18560,-8,-8,-8,-8,-8,-8,-8,17720,17720,17720,17720,17840,17952,17840,17840,17840,17720,17840,17720,-8,-8,-8,-8,-8,-8,13688,13688,13688,13688,13616,13552,13488,13488,13416,13416,13416,13352,13288,13224,13160,13104,13104,12976,-8
-8,-8,-8,-8,-8,-8,-8,6824,6840,6856,6872,6872,6888,6888,6904,6888,6888,6888,6904,-8,-8,-8,0,0,0,0,0,0,0,0,0,0,0,0,0,0,0,0,0,0,0,0,0,0,0,0,0,0,0,0,0,0,0,0,0,0,0,0,0,0,0,0,0,0,0,0,0,0,0,0,0,0,0,0,0,0,0,0,0,0,0,0,0,0,0,0,0,0,0,0,0,0,0,0,0,0,0,0,0,0,0,0,0,0,0,0,0,0,0,0,0,0,0,0,0,0,0,0,0,0,0,0,0,0,0,0,0,0,0,0,0,0,0,0,0,0,0,0,0,0,0,0,0,0,0,0,0,0,0,0,0,0,0,0,0,0,0,0,0,0,0,0,0,0,0,0,0,0,0,0,0,0,0,0,0,0,0,0,0,0,0,0,0,0,0,0,0,0,0,0,0,0,0,0,0,0,0,0,0,0,0,0,0,0,0,0,0,0,0,0,0,0,0,0,0,0,0,0,0,0,0,0,0,0,0,0,0,0,0,0,0,0,0,0,0,0,0,0,0,0,0,0,0,0,0,0,0,0,0,0,0,0,0,0,0,0,0,0,0,0,0,0,0,0,0,0,0,0,0,0,0,0,0,0,0,0,0,0,0,0,0,0,0,0,0,0,0,-8,-8,-8,-8,-8,-8,-8,-8,-8,-8,-8,7784,7824,7824,7808,7824,7824,7808,7784,7784,7760,7760,7744,7720,7720,7720,7696,7696,7696,7672,7672,7656,7672,7656,7656,7632,7632,7632,7632,7616,7616,7616,7592,7568,7592,7568,7568,7568,7568,7568,7568,7568,7568,7568,7552,7552,7552,7552,7552,7552,7552,7552,7552,7552,7552,7552,7552,7552,7552,7552,7552,7552,7552,7552,7568,7552,7568,7568,7568,7568,7568,7552,7552,7568,7568,7592,7592,7592,7616,7632,7632,7632,7656,7656,7656,7656,7656,7672,7696,7696,7720,7720,7744,7744,7760,7760,7784,7784,7808,7808,7824,7848,7872,7896,7920,7944,7960,7984,8008,8008,8032,8056,-8,-8,-8,-8,-8,-8,-8,-8,-8,-8,-8,-8,-8,-8,-8,-8,-8,-8,-8,-8,-8,-8,-8,-8,-8,20184,20336,20336,20480,20480,20480,20640,20640,20640,20640,20640,20640,20640,20480,20480,20480,20480,20480,20480,20480,20480,20480,20480,20480,20480,20480,20480,20480,20336,20480,20480,20480,20480,20480,20480,20480,20480,20480,20480,20480,20640,20480,20480,20480,20480,20480,20640,20640,-8,-8,-8,-8,-8,23640,23640,23440,23640,23640,-8,-8,-8,-8,-8,-8,-8,-8,-8,-8,-8,-8,-8,-8,-8,-8,-8,-8,-8,-8,-8,-8,-8,-8,23640,23640,23440,23440,23640,23640,23440,23440,23240,23240,23440,23440,23440,23440,23440,23440,23440,23640,23440,23440,23240,23440,23240,23440,23440,23240,23440,23440,23440,23440,23440,23440,23440,23440,23440,23440,23440,23240,23240,23240,23048,22856,17952,21440,21272,21112,20952,20952,20792,20792,20792,20792,20640,20640,20336,20184,20040,20184,20184,20184,20040,20040,20040,20040,16656,16656,16760,19608,19608,19472,19472,19336,19336,17496,-8,18560,18560,18560,18560,-8,-8,-8,-8,-8,-8,-8,-8,17840,17608,17608,17720,17840,17952,17720,17720,17720,17840,17840,17720,-8,-8,-8,-8,-8,13752,13688,13688,13688,13688,13616,13616,13488,13416,13416,13352,13352,13288,13224,13160,13160,13160,13104,12976,-8
-8,-8,-8,-8,-8,-8,-8,6840,6856,6872,6872,6888,6888,6888,6904,6888,6888,6904,6904,-8,-8,-8,-8,0,0,0,0,0,0,0,0,0,0,0,0,0,0,0,0,0,0,0,0,0,0,0,0,0,0,0,0,0,0,0,0,0,0,0,0,0,0,0,0,0,0,0,0,0,0,0,0,0,0,0,0,0,0,0,0,0,0,0,0,0,0,0,0,0,0,0,0,0,0,0,0,0,0,0,0,0,0,0,0,0,0,0,0,0,0,0,0,0,0,0,0,0,0,0,0,0,0,0,0,0,0,0,0,0,0,0,0,0,0,0,0,0,0,0,0,0,0,0,0,0,0,0,0,0,0,0,0,0,0,0,0,0,0,0,0,0,0,0,0,0,0,0,0,0,0,0,0,0,0,0,0,0,0,0,0,0,0,0,0,0,0,0,0,0,0,0,0,0,0,0,0,0,0,0,0,0,0,0,0,0,0,0,0,0,0,0,0,0,0,0,0,0,0,0,0,0,0,0,0,0,0,0,0,0,0,0,0,0,0,0,0,0,0,0,0,0,0,0,0,0,0,0,0,0,0,0,0,0,0,0,0,0,0,0,0,0,0,0,0,0,0,0,0,0,0,0,0,0,0,0,0,0,0,0,0,0,0,0,0,0,0,0,0,-8,-8,-8,-8,-8,-8,-8,-8,-8,-8,-8,7784,7824,7824,7824,7824,7824,7824,7808,7784,7760,7760,7744,7720,7720,7720,7696,7696,7696,7696,7672,7672,7696,7696,7672,7656,7656,7656,7656,7632,7632,7616,7616,7592,7616,7592,7592,7592,7592,7592,7592,7592,7568,7568,7568,7568,7568,7552,7552,7552,7552,7552,7552,7552,7552,7552,7552,7552,7552,7552,7552,7552,7552,7568,7568,7568,7568,7568,7592,7592,7568,7568,7568,7568,7568,7592,7592,7592,7616,7632,7632,7632,7656,7656,7656,7672,7672,7696,7696,7720,7744,7744,7760,7760,7784,7784,7808,7808,7808,7824,7848,7872,7896,7896,7944,7960,7984,7984,8008,8032,8056,8080,-8,-8,-8,-8,-8,-8,-8,-8,-8,-8,-8,-8,-8,-8,-8,-8,-8,-8,-8,-8,-8,-8,-8,-8,-8,20184,20336,20336,20480,20480,20640,20640,20640,20640,20640,20640,20640,20640,20480,20480,20480,20480,20480,20480,20480,20480,20480,20480,20480,20336,20480,20480,20336,20336,20480,20480,20480,20480,20480,20480,20480,20480,20480,20480,20480,20480,20480,20640,20640,20480,20640,20640,-8,-8,-8,-8,-8,-8,23440,23440,23440,23640,-8,-8,-8,-8,-8,-8,-8,-8,-8,-8,-8,-8,-8,-8,-8,-8,-8,-8,-8,-8,-8,-8,-8,-8,-8,23440,23440,23440,23440,23440,23640,23440,23240,23240,23240,23240,23240,23240,23240,23440,23240,23440,23440,23240,23240,23048,23240,23240,23240,23240,23240,23240,23240,23440,23440,23440,23440,23440,23440,23440,23440,23440,23240,23240,23048,23048,22672,17608,17496,21272,21112,20952,20952,20952,20792,20792,20792,20792,17176,20184,20184,20040,20184,20184,20184,16360,16360,16656,16760,16760,16760,16856,19608,19752,16960,17176,17176,17496,-8,-8,-8,-8,-8,-8,-8,-8,-8,-8,-8,-8,-8,-8,17720,17608,17608,17720,17720,17840,17720,17720,17720,17840,17840,17720,-8,-8,-8,-8,-8,13752,13752,13688,13688,13688,13616,13552,13488,13416,13352,13352,13352,13288,13224,13160,13160,13160,13104,12920,-8
-8,-8,-8,-8,-8,-8,-8,6840,6856,6872,6888,6888,6904,6904,6904,6904,6928,6904,6904,-8,-8,-8,-8,0,0,0,0,0,0,0,0,0,0,0,0,0,0,0,0,0,0,0,0,0,0,0,0,0,0,0,0,0,0,0,0,0,0,0,0,0,0,0,0,0,0,0,0,0,0,0,0,0,0,0,0,0,0,0,0,0,0,0,0,0,0,0,0,0,0,0,0,0,0,0,0,0,0,0,0,0,0,0,0,0,0,0,0,0,0,0,0,0,0,0,0,0,0,0,0,0,0,0,0,0,0,0,0,0,0,0,0,0,0,0,0,0,0,0,0,0,0,0,0,0,0,0,0,0,0,0,0,0,0,0,0,0,0,0,0,0,0,0,0,0,0,0,0,0,0,0,0,0,0,0,0,0,0,0,0,0,0,0,0,0,0,0,0,0,0,0,0,0,0,0,0,0,0,0,0,0,0,0,0,0,0,0,0,0,0,0,0,0,0,0,0,0,0,0,0,0,0,0,0,0,0,0,0,0,0,0,0,0,0,0,0,0,0,0,0,0,0,0,0,0,0,0,0,0,0,0,0,0,0,0,0,0,0,0,0,0,0,0,0,0,0,0,0,0,0,0,0,0,0,0,0,0,0,0,0,0,0,0,0,0,0,0,0,-8,-8,-8,-8,-8,-8,-8,-8,-8,-8,-8,7872,7848,7848,7824,7848,7848,7824,7824,7808,7784,7760,7760,7720,7720,7720,7696,7696,7696,7696,7696,7672,7696,7696,7696,7672,7656,7656,7656,7656,7632,7632,7632,7616,7616,7616,7616,7616,7616,7616,7616,7616,7592,7592,7592,7592,7568,7568,7568,7568,7552,7568,7568,7568,7568,7568,7568,7568,7568,7552,7552,7568,7568,7568,7592,7568,7592,7592,7592,7592,7592,7592,7592,7592,7592,7592,7616,7616,7632,7632,7656,7656,7656,7672,7672,7672,7696,7696,7720,7720,7744,7760,7784,7784,7784,7784,7808,7808,7824,7824,7848,7872,7896,7896,7944,7960,7984,8008,8032,8032,8056,8104,-8,-8,-8,-8,-8,-8,-8,-8,-8,-8,-8,-8,-8,-8,-8,-8,-8,-8,-8,-8,-8,-8,-8,-8,-8,-8,20336,20336,20480,20480,20640,20640,20640,20640,20640,20640,20640,20640,20640,20480,20480,20480,20480,20480,20480,20480,20480,20480,20480,20480,20480,20480,20336,20336,20480,20480,20480,20480,20480,20480,20480,20480,20640,20480,20480,20480,20640,20952,20952,20480,20480,20640,-8,-8,-8,-8,-8,-8,-8,23440,23440,-8,-8,-8,-8,-8,-8,-8,-8,-8,-8,-8,-8,-8,-8,-8,-8,-8,-8,-8,-8,-8,-8,-8,-8,-8,23240,23440,23440,23440,23440,23440,23440,23440,23240,23240,23240,23240,23240,23240,23048,23240,23240,23240,23440,23240,23240,23048,23240,23240,23240,23240,23240,23240,23240,23440,23440,23440,23440,23440,23440,23440,23440,23440,23240,23240,23048,23048,17608,17496,17496,17496,17496,17496,17496,17496,17392,17392,17280,17280,17176,17176,17064,17176,17176,17392,17392,17392,16656,16656,16760,16856,16856,17064,17176,17064,17064,17280,17280,17392,17392,-8,-8,-8,-8,-8,-8,-8,-8,-8,-8,-8,-8,-8,-8,17496,17496,17608,17608,17840,17720,17720,17720,17840,17840,17840,-8,-8,-8,-8,13752,13752,13752,13688,13688,13688,13616,13552,13488,13416,13352,13352,13288,13224,13224,13160,13160,13040,13040,12920,-8
-8,-8,-8,-8,-8,-8,-8,6856,6872,6888,6888,6888,6904,6904,6928,6928,6928,6928,6944,-8,-8,-8,-8,-8,0,0,0,0,0,0,0,0,0,0,0,0,0,0,0,0,0,0,0,0,0,0,0,0,0,0,0,0,0,0,0,0,0,0,0,0,0,0,0,0,0,0,0,0,0,0,0,0,0,0,0,0,0,0,0,0,0,0,0,0,0,0,0,0,0,0,0,0,0,0,0,0,0,0,0,0,0,0,0,0,0,0,0,0,0,0,0,0,0,0,0,0,0,0,0,0,0,0,0,0,0,0,0,0,0,0,0,0,0,0,0,0,0,0,0,0,0,0,0,0,0,0,0,0,0,0,0,0,0,0,0,0,0,0,0,0,0,0,0,0,0,0,0,0,0,0,0,0,0,0,0,0,0,0,0,0,0,0,0,0,0,0,0,0,0,0,0,0,0,0,0,0,0,0,0,0,0,0,0,0,0,0,0,0,0,0,0,0,0,0,0,0,0,0,0,0,0,0,0,0,0,0,0,0,0,0,0,0,0,0,0,0,0,0,0,0,0,0,0,0,0,0,0,0,0,0,0,0,0,0,0,0,0,0,0,0,0,0,0,0,0,0,0,0,0,0,0,0,0,0,0,0,0,0,0,0,0,0,0,0,0,0,-8,-8,-8,-8,-8,-8,-8,-8,-8,-8,-8,-8,7824,7848,7848,7824,7824,7824,7824,7824,7808,7784,7784,7784,7744,7744,7720,7720,7720,7696,7696,7696,7696,7720,7696,7696,7672,7672,7656,7656,7656,7656,7632,7632,7632,7632,7616,7616,7616,7616,7616,7616,7616,7616,7616,7616,7616,7592,7592,7568,7568,7568,7568,7592,7568,7568,7592,7592,7592,7592,7568,7568,7568,7592,7592,7592,7592,7592,7592,7616,7616,7616,7592,7592,7616,7616,7616,7616,7632,7656,7656,7672,7672,7672,7672,7672,7696,7696,7696,7720,7720,7744,7760,7784,7784,7784,7808,7808,7824,7824,7848,7848,7872,7896,7920,7944,7960,8008,8032,8056,8056,8080,8104,-8,-8,-8,-8,-8,-8,-8,-8,-8,-8,-8,-8,-8,-8,-8,-8,-8,-8,-8,-8,-8,-8,-8,-8,-8,20336,20336,20336,20480,20480,20640,20640,20640,20640,20640,20640,20640,20640,20640,20640,20640,20640,20640,20480,20640,20480,20480,20480,20480,20480,20480,20480,20480,20480,20480,20480,20480,20640,20640,20640,20640,20640,20640,20640,20640,20640,20640,20952,20952,-8,20480,20640,-8,-8,-8,-8,-8,-8,-8,-8,-8,-8,-8,-8,-8,-8,-8,-8,-8,-8,-8,-8,-8,-8,-8,-8,-8,-8,-8,-8,-8,-8,-8,-8,-8,-8,23240,23240,23240,23240,23240,23440,23440,23240,23240,23048,23240,23240,23240,23240,23048,23240,22856,23240,23240,23240,23240,23048,23240,23240,23240,23240,23240,23240,23240,23240,23240,23240,23240,23240,23440,23440,23440,23440,23440,23240,17280,17280,17392,17280,17392,17280,17392,17392,17392,17392,17280,17392,17280,17280,17280,17176,17176,17176,17280,17392,17392,17496,16760,16760,17176,17176,17176,17176,17176,17176,17280,17392,17280,17392,17392,-8,-8,-8,-8,-8,-8,-8,-8,-8,-8,-8,-8,-8,-8,17608,17496,17608,17608,17720,17720,17608,17608,17720,17840,17840,17840,17840,-8,13824,13824,13752,13752,13752,13688,13688,13616,13552,13552,13416,13352,13288,13288,13224,13160,13160,13104,13040,13040,12976,-8
